# .PCD v0.7 - Point Cloud Data file format
VERSION 0.7
FIELDS x y z
SIZE 4 4 4
TYPE F F F
COUNT 1 1 1
WIDTH 1430
HEIGHT 1
VIEWPOINT 0 0 0 1 0 0 0
POINTS 1430
DATA ascii
-0.11677701 -0.10230906 1.1810001
-0.11461303 -0.10222243 1.1800001
-0.11235716 -0.10204917 1.1780001
-0.11020193 -0.10196254 1.177
-0.10795832 -0.10178928 1.1750001
-0.10590198 -0.10178928 1.1750001
-0.10375725 -0.10170265 1.174
-0.10178928 -0.10178928 1.1750001
-0.099648051 -0.10170265 1.174
-0.097593449 -0.10170265 1.174
-0.095538847 -0.10170265 1.174
-0.093484245 -0.10170265 1.174
-0.091507532 -0.10178928 1.1750001
-0.089603439 -0.10196254 1.177
-0.087543592 -0.10196254 1.177
-0.085629001 -0.10213579 1.179
-0.08363653 -0.10222243 1.1800001
-0.08170969 -0.10239568 1.182
-0.079843223 -0.10265557 1.1850001
-0.078031883 -0.10300208 1.189
-0.076270424 -0.10343523 1.194
-0.074367203 -0.10369512 1.197
-0.072513871 -0.10404164 1.2010001
-0.070587903 -0.10430153 1.2040001
-0.06865143 -0.10456141 1.207
-0.066594206 -0.10464804 1.2080001
-0.064640239 -0.10490793 1.2110001
-0.062727399 -0.10525444 1.215
-0.061149698 -0.10620737 1.2260001
-0.15053262 -0.10210954 1.2030001
-0.14879742 -0.10236418 1.2060001
-0.14656518 -0.1022793 1.205
-0.14397682 -0.10193979 1.2010001
-0.1416387 -0.10177002 1.199
-0.13907483 -0.10143051 1.1950001
-0.13652496 -0.101091 1.1910001
-0.13410197 -0.10083636 1.1880001
-0.13157833 -0.10049684 1.184
-0.12917811 -0.10024221 1.1810001
-0.12668073 -0.099902689 1.177
-0.12462088 -0.099902689 1.177
-0.12266516 -0.099987566 1.1780001
-0.12070594 -0.10007244 1.179
-0.11864259 -0.10007244 1.179
-0.11648037 -0.099987566 1.1780001
-0.11432163 -0.099902689 1.177
-0.1121664 -0.099817805 1.176
-0.11001468 -0.099732928 1.1750001
-0.10768269 -0.099478289 1.1720001
-0.10554145 -0.099393405 1.171
-0.10340373 -0.099308535 1.1700001
-0.10135613 -0.099308535 1.1700001
-0.099223658 -0.099223658 1.169
-0.097177804 -0.099223658 1.169
-0.095213339 -0.099308535 1.1700001
-0.093245357 -0.099393405 1.171
-0.091196015 -0.099393405 1.171
-0.089298934 -0.099563174 1.1730001
-0.087246083 -0.099563174 1.1730001
-0.085193232 -0.099563174 1.1730001
-0.083140381 -0.099563174 1.1730001
-0.08122579 -0.099732928 1.1750001
-0.079371579 -0.099987566 1.1780001
-0.077572487 -0.10032708 1.182
-0.075695522 -0.10058172 1.1850001
-0.073870182 -0.10092123 1.189
-0.07203085 -0.10126076 1.1930001
-0.070060246 -0.10143051 1.1950001
-0.068367042 -0.10202466 1.202
-0.066373698 -0.10219443 1.2040001
-0.064533487 -0.10261882 1.2090001
-0.062417638 -0.10261882 1.2090001
-0.060750674 -0.10338273 1.2180001
-0.15103315 -0.10033671 1.207
-0.14818053 -0.099837936 1.2010001
-0.14644356 -0.10008733 1.2040001
-0.14385693 -0.09975481 1.2
-0.14175682 -0.09975481 1.2
-0.13919121 -0.099422291 1.1960001
-0.13652496 -0.099006653 1.1910001
-0.13410197 -0.09875726 1.1880001
-0.13157833 -0.09842474 1.184
-0.12917811 -0.098175354 1.1810001
-0.12689598 -0.098009095 1.179
-0.12472676 -0.097925976 1.1780001
-0.12276928 -0.098009095 1.179
-0.12060355 -0.097925976 1.1780001
-0.11844134 -0.097842835 1.177
-0.11648037 -0.097925976 1.1780001
-0.11432163 -0.097842835 1.177
-0.1121664 -0.097759709 1.176
-0.10992105 -0.097593449 1.174
-0.10768269 -0.097427189 1.1720001
-0.10554145 -0.097344063 1.171
-0.10331535 -0.097177804 1.169
-0.10118288 -0.097094677 1.1680001
-0.099138781 -0.097094677 1.1680001
-0.097177804 -0.097177804 1.169
-0.095213339 -0.097260937 1.1700001
-0.093404628 -0.09751033 1.1730001
-0.091351777 -0.09751033 1.1730001
-0.089375049 -0.097593449 1.174
-0.087171696 -0.097427189 1.1720001
-0.085193232 -0.09751033 1.1730001
-0.083069503 -0.097427189 1.1720001
-0.081156656 -0.097593449 1.174
-0.079169437 -0.097676583 1.1750001
-0.077244341 -0.097842835 1.177
-0.075376131 -0.098092228 1.1800001
-0.073559545 -0.09842474 1.184
-0.07172896 -0.09875726 1.1880001
-0.06988436 -0.099089772 1.192
-0.068253286 -0.09975481 1.2
-0.066539079 -0.10033671 1.207
-0.064800374 -0.10091861 1.2140001
-0.062727399 -0.10100174 1.215
-0.06080056 -0.10133426 1.2190001
-0.15428743 -0.098956764 1.2160001
-0.15065776 -0.097980224 1.2040001
-0.14805713 -0.097654708 1.2
-0.14644356 -0.097980224 1.2040001
-0.14373705 -0.097573325 1.199
-0.1416387 -0.097573325 1.199
-0.13895844 -0.097166426 1.194
-0.13629569 -0.096759535 1.189
-0.13376331 -0.096434027 1.1850001
-0.13135608 -0.096189879 1.182
-0.12906872 -0.096027128 1.1800001
-0.12678836 -0.09586437 1.1780001
-0.12462088 -0.095782988 1.177
-0.12245689 -0.095701605 1.176
-0.11998928 -0.095376089 1.1720001
-0.11793818 -0.095376089 1.1720001
-0.11598597 -0.095457479 1.1730001
-0.11403023 -0.095538847 1.174
-0.11188027 -0.095457479 1.1730001
-0.10964015 -0.095294714 1.171
-0.1075908 -0.095294714 1.171
-0.1053612 -0.095131956 1.169
-0.10322697 -0.095050581 1.1680001
-0.10100961 -0.094887823 1.166
-0.098884135 -0.094806448 1.1650001
-0.096845292 -0.094806448 1.1650001
-0.094887823 -0.094887823 1.166
-0.093006484 -0.095050581 1.1680001
-0.090962388 -0.095050581 1.1680001
-0.088994414 -0.095131956 1.169
-0.086948566 -0.095131956 1.169
-0.084975347 -0.095213339 1.1700001
-0.082856864 -0.095131956 1.169
-0.080949277 -0.095294714 1.171
-0.07889992 -0.095294714 1.171
-0.076916203 -0.095376089 1.1720001
-0.074992865 -0.095538847 1.174
-0.073186778 -0.09586437 1.1780001
-0.07142707 -0.096271262 1.1830001
-0.069591224 -0.096596777 1.187
-0.06791202 -0.097166426 1.194
-0.066208318 -0.097736083 1.2010001
-0.064480104 -0.098305739 1.2080001
-0.062469255 -0.098468497 1.21
-0.060501292 -0.098712631 1.2130001
-0.058667205 -0.099200912 1.2190001
-0.15301862 -0.096032381 1.2060001
-0.15028237 -0.095634237 1.2010001
-0.14768699 -0.095315717 1.197
-0.14644356 -0.095873125 1.2040001
-0.14409669 -0.095713861 1.202
-0.14175682 -0.095554605 1.2
-0.13907483 -0.095156454 1.1950001
-0.13663958 -0.094917566 1.192
-0.13410197 -0.094599061 1.1880001
-0.13168947 -0.094360173 1.1850001
-0.12928747 -0.094121285 1.182
-0.12711126 -0.09404166 1.1810001
-0.12483263 -0.093882397 1.179
-0.12245689 -0.093643509 1.176
-0.12009166 -0.093404628 1.1730001
-0.11793818 -0.093324997 1.1720001
-0.11588708 -0.093324997 1.1720001
-0.11393312 -0.093404628 1.1730001
-0.11188027 -0.093404628 1.1730001
-0.10973379 -0.093324997 1.1720001
-0.10740705 -0.093086109 1.169
-0.1050908 -0.092847221 1.166
-0.10296184 -0.092767596 1.1650001
-0.10092299 -0.092767596 1.1650001
-0.098884135 -0.092767596 1.1650001
-0.097011551 -0.092926852 1.1670001
-0.094887823 -0.092847221 1.166
-0.093006484 -0.093006484 1.1680001
-0.091040254 -0.093086109 1.169
-0.088994414 -0.093086109 1.169
-0.086874187 -0.093006484 1.1680001
-0.084902711 -0.093086109 1.169
-0.082927741 -0.09316574 1.1700001
-0.081018403 -0.093324997 1.1720001
-0.07889992 -0.093245357 1.171
-0.076916203 -0.093324997 1.1720001
-0.075056739 -0.093563877 1.1750001
-0.073186778 -0.093802772 1.1780001
-0.071306311 -0.09404166 1.1810001
-0.069473974 -0.094360173 1.1850001
-0.067684516 -0.094758317 1.1900001
-0.065932676 -0.095236085 1.1960001
-0.0642666 -0.095873125 1.2040001
-0.062417638 -0.096271269 1.2090001
-0.06055117 -0.096669406 1.2140001
-0.058619075 -0.096987925 1.2180001
-0.155901 -0.094389044 1.212
-0.15263799 -0.093688145 1.2030001
-0.15028237 -0.093532383 1.2010001
-0.14805713 -0.093454503 1.2
-0.14644356 -0.093766026 1.2040001
-0.14409669 -0.093610257 1.202
-0.14152057 -0.093298748 1.1980001
-0.13884206 -0.092909351 1.1930001
-0.13641033 -0.092675716 1.1900001
-0.13398908 -0.09244208 1.187
-0.13157833 -0.092208438 1.184
-0.12906872 -0.091896929 1.1800001
-0.12689598 -0.09181904 1.179
-0.124515 -0.091585405 1.176
-0.12224864 -0.091429651 1.174
-0.11998928 -0.091273896 1.1720001
-0.11793818 -0.091273896 1.1720001
-0.1157882 -0.091196015 1.171
-0.11373885 -0.091196015 1.171
-0.1116895 -0.091196015 1.171
-0.1094529 -0.091040254 1.169
-0.10703953 -0.090728745 1.1650001
-0.10473029 -0.09049511 1.1620001
-0.10260832 -0.090417229 1.161
-0.10083635 -0.090650864 1.164
-0.098884135 -0.090728745 1.1650001
-0.096928418 -0.090806618 1.166
-0.094806448 -0.090728745 1.1650001
-0.092847221 -0.090806618 1.166
-0.090884507 -0.090884507 1.1670001
-0.088766024 -0.090806618 1.166
-0.08665105 -0.090728745 1.1650001
-0.08453957 -0.090650864 1.164
-0.082644224 -0.090806618 1.166
-0.080741897 -0.090962388 1.1680001
-0.078697793 -0.090962388 1.1680001
-0.076719321 -0.091040254 1.169
-0.07486511 -0.091273896 1.1720001
-0.073000394 -0.091507532 1.1750001
-0.07112518 -0.091741174 1.1780001
-0.069180831 -0.091896929 1.1800001
-0.06740012 -0.092286319 1.1850001
-0.065491654 -0.092519961 1.1880001
-0.063679442 -0.092909351 1.1930001
-0.061746474 -0.093142986 1.1960001
-0.060202025 -0.093999654 1.207
-0.058378439 -0.094466932 1.2130001
-0.15301862 -0.091811173 1.2060001
-0.14965671 -0.091049887 1.1960001
-0.14781037 -0.091202147 1.1980001
-0.14620028 -0.09150666 1.202
-0.14385693 -0.0913544 1.2
-0.14140244 -0.09112601 1.197
-0.13895844 -0.09089762 1.194
-0.13675421 -0.090821505 1.1930001
-0.13432772 -0.090593114 1.1900001
-0.13180061 -0.090288602 1.1860001
-0.12928747 -0.089984089 1.182
-0.12700363 -0.089831829 1.1800001
-0.12472676 -0.089679569 1.1780001
-0.12245689 -0.089527309 1.176
-0.12009166 -0.089298934 1.1730001
-0.11793818 -0.089222796 1.1720001
-0.11559044 -0.088994414 1.169
-0.11354459 -0.088994414 1.169
-0.11149874 -0.088994414 1.169
-0.10935927 -0.088918291 1.1680001
-0.1067639 -0.088461511 1.1620001
-0.10455004 -0.088309258 1.1600001
-0.10251994 -0.088309258 1.1600001
-0.10083635 -0.088613771 1.164
-0.098884135 -0.088689893 1.1650001
-0.096928418 -0.088766024 1.166
-0.094806448 -0.088689893 1.1650001
-0.092847221 -0.088766024 1.166
-0.090884507 -0.088842154 1.1670001
-0.088689893 -0.088689893 1.1650001
-0.08657667 -0.088613771 1.164
-0.08453957 -0.088613771 1.164
-0.082715109 -0.088842154 1.1670001
-0.080741897 -0.088918291 1.1680001
-0.078765169 -0.088994414 1.169
-0.076850571 -0.089146666 1.171
-0.075120613 -0.089527309 1.176
-0.0732489 -0.089755692 1.179
-0.071306311 -0.089907959 1.1810001
-0.069298089 -0.089984089 1.182
-0.067343242 -0.090136342 1.184
-0.065381408 -0.090288602 1.1860001
-0.063465931 -0.090516984 1.189
-0.061591592 -0.090821505 1.1930001
-0.060002517 -0.091582783 1.2030001
-0.15314549 -0.089774944 1.207
-0.15040749 -0.089403048 1.202
-0.14805713 -0.089254305 1.2
-0.14583538 -0.089179918 1.199
-0.14373705 -0.089179918 1.199
-0.14116618 -0.088882409 1.1950001
-0.13907483 -0.088882409 1.1950001
-0.13663958 -0.088659264 1.192
-0.13421483 -0.088436134 1.189
-0.13146721 -0.087989867 1.1830001
-0.12895933 -0.08769235 1.179
-0.12668073 -0.087543592 1.177
-0.12440912 -0.087394841 1.1750001
-0.12214451 -0.087246083 1.1730001
-0.1198869 -0.087097317 1.171
-0.11773692 -0.087022945 1.1700001
-0.11549157 -0.086874187 1.1680001
-0.11335033 -0.086799808 1.1670001
-0.11140337 -0.086874187 1.1680001
-0.109172 -0.086725421 1.166
-0.1067639 -0.086427912 1.1620001
-0.10455004 -0.086279154 1.1600001
-0.10260832 -0.086353526 1.161
-0.10092299 -0.08665105 1.1650001
-0.098884135 -0.08665105 1.1650001
-0.096762158 -0.08657667 1.164
-0.09464369 -0.086502299 1.1630001
-0.09260834 -0.086502299 1.1630001
-0.090650864 -0.08657667 1.164
-0.088461511 -0.086427912 1.1620001
-0.086502299 -0.086502299 1.1630001
-0.084466949 -0.086502299 1.1630001
-0.082573354 -0.08665105 1.1650001
-0.080603629 -0.086725421 1.166
-0.07863041 -0.086799808 1.1670001
-0.076784953 -0.087022945 1.1700001
-0.074928984 -0.087246083 1.1730001
-0.073062517 -0.087469205 1.176
-0.0710648 -0.087543592 1.177
-0.069063574 -0.087617971 1.1780001
-0.067115732 -0.087766729 1.1800001
-0.065105766 -0.087841108 1.1810001
-0.063199043 -0.088064238 1.184
-0.061333455 -0.088361755 1.1880001
-0.059503745 -0.088733651 1.1930001
-0.15564375 -0.087880477 1.21
-0.15289174 -0.087517343 1.205
-0.15040749 -0.087299451 1.202
-0.14818053 -0.08722683 1.2010001
-0.14620028 -0.087299451 1.202
-0.14385693 -0.087154202 1.2
-0.14140244 -0.08693631 1.197
-0.13919121 -0.086863682 1.1960001
-0.13698348 -0.086791053 1.1950001
-0.1344406 -0.086500548 1.1910001
-0.13168947 -0.086064771 1.1850001
-0.12917811 -0.085774265 1.1810001
-0.12678836 -0.085556373 1.1780001
-0.124515 -0.085411109 1.176
-0.12214451 -0.085193232 1.1730001
-0.11998928 -0.085120596 1.1720001
-0.11773692 -0.084975347 1.1700001
-0.11559044 -0.084902711 1.169
-0.11344747 -0.08483009 1.1680001
-0.11140337 -0.08483009 1.1680001
-0.10926563 -0.084757462 1.1670001
-0.10703953 -0.084612206 1.1650001
-0.10491055 -0.08453957 1.164
-0.10296184 -0.084612206 1.1650001
-0.10118288 -0.08483009 1.1680001
-0.099138781 -0.08483009 1.1680001
-0.096928418 -0.084684826 1.166
-0.094806448 -0.084612206 1.1650001
-0.092687964 -0.08453957 1.164
-0.090650864 -0.08453957 1.164
-0.088461511 -0.084394321 1.1620001
-0.086725421 -0.084684826 1.166
-0.08483009 -0.08483009 1.1680001
-0.083069503 -0.085120596 1.1720001
-0.081018403 -0.085120596 1.1720001
-0.078967303 -0.085120596 1.1720001
-0.076981835 -0.085193232 1.1730001
-0.074992865 -0.085265853 1.174
-0.073000394 -0.085338488 1.1750001
-0.071004413 -0.085411109 1.176
-0.069004945 -0.085483737 1.177
-0.067058854 -0.085629001 1.179
-0.065050632 -0.08570163 1.1800001
-0.063145667 -0.085919522 1.1830001
-0.061230201 -0.086137407 1.1860001
-0.059254356 -0.086282656 1.1880001
-0.057367764 -0.086573169 1.192
-0.15815251 -0.08597552 1.2130001
-0.15461469 -0.085195847 1.202
-0.15225732 -0.0850541 1.2
-0.15053262 -0.085266739 1.2030001
-0.14855067 -0.085337617 1.2040001
-0.14620028 -0.085195847 1.202
-0.14373705 -0.084983215 1.199
-0.1412843 -0.084770583 1.1960001
-0.13907483 -0.084699705 1.1950001
-0.13698348 -0.084699705 1.1950001
-0.1344406 -0.084416196 1.1910001
-0.13157833 -0.083920039 1.184
-0.12895933 -0.083565645 1.179
-0.12657309 -0.083353005 1.176
-0.12430323 -0.083211258 1.174
-0.12214451 -0.083140381 1.1730001
-0.11998928 -0.083069503 1.1720001
-0.11783754 -0.082998618 1.171
-0.11568932 -0.082927741 1.1700001
-0.11364173 -0.082927741 1.1700001
-0.11149874 -0.082856864 1.169
-0.1094529 -0.082856864 1.169
-0.10713141 -0.082644224 1.166
-0.10500069 -0.082573354 1.1650001
-0.10296184 -0.082573354 1.1650001
-0.10109624 -0.082715109 1.1670001
-0.099138781 -0.082785994 1.1680001
-0.096928418 -0.082644224 1.166
-0.094806448 -0.082573354 1.1650001
-0.09260834 -0.082431599 1.1630001
-0.09057299 -0.082431599 1.1630001
-0.088461511 -0.082360715 1.1620001
-0.086725421 -0.082644224 1.166
-0.084757462 -0.082715109 1.1670001
-0.082644224 -0.082644224 1.166
-0.080603629 -0.082644224 1.166
-0.078563027 -0.082644224 1.166
-0.076588064 -0.082715109 1.1670001
-0.074673474 -0.082856864 1.169
-0.072627619 -0.082856864 1.169
-0.070642151 -0.082927741 1.1700001
-0.06859456 -0.082927741 1.1700001
-0.066774465 -0.083211258 1.174
-0.06477499 -0.083282135 1.1750001
-0.062825404 -0.083423898 1.177
-0.060868807 -0.083565645 1.179
-0.058905218 -0.083707415 1.1810001
-0.057030872 -0.083990924 1.1850001
-0.055142529 -0.084274426 1.189
-0.15487197 -0.083230518 1.2040001
-0.15213044 -0.082884863 1.199
-0.15053262 -0.083161376 1.2030001
-0.1483039 -0.08309225 1.202
-0.14632192 -0.083161376 1.2030001
-0.14385693 -0.082953997 1.2
-0.14152057 -0.082815744 1.1980001
-0.13907483 -0.082608357 1.1950001
-0.13698348 -0.082608357 1.1950001
-0.1344406 -0.082331844 1.1910001
-0.13180061 -0.081986204 1.1860001
-0.12917811 -0.081640564 1.1810001
-0.12689598 -0.081502296 1.179
-0.12472676 -0.08143317 1.1780001
-0.12235277 -0.08122579 1.1750001
-0.12009166 -0.081087537 1.1730001
-0.11793818 -0.081018403 1.1720001
-0.11588708 -0.081018403 1.1720001
-0.11383599 -0.081018403 1.1720001
-0.11178489 -0.081018403 1.1720001
-0.10973379 -0.081018403 1.1720001
-0.10740705 -0.080811016 1.169
-0.1050908 -0.080603629 1.166
-0.10305021 -0.080603629 1.166
-0.10118288 -0.080741897 1.1680001
-0.099308535 -0.08088015 1.1700001
-0.097177804 -0.080811016 1.169
-0.095050581 -0.080741897 1.1680001
-0.092926852 -0.080672756 1.1670001
-0.090884507 -0.080672756 1.1670001
-0.088918291 -0.080741897 1.1680001
-0.086948566 -0.080811016 1.169
-0.084757462 -0.080672756 1.1670001
-0.082502477 -0.080465376 1.164
-0.080534503 -0.080534503 1.1650001
-0.078563027 -0.080603629 1.166
-0.076653697 -0.080741897 1.1680001
-0.074673474 -0.080811016 1.169
-0.072627619 -0.080811016 1.169
-0.070642151 -0.08088015 1.1700001
-0.06859456 -0.08088015 1.1700001
-0.066717587 -0.081087537 1.1730001
-0.064719863 -0.081156656 1.174
-0.062772021 -0.081294909 1.176
-0.06076555 -0.081364043 1.177
-0.058805458 -0.081502296 1.179
-0.056838367 -0.081640564 1.1810001
-0.055003401 -0.081986204 1.1860001
-0.15641554 -0.081931949 1.2160001
-0.15339927 -0.081460305 1.2090001
-0.15015723 -0.080853894 1.2
-0.14793375 -0.080786511 1.199
-0.14547051 -0.080584385 1.1960001
-0.14349727 -0.080651753 1.197
-0.14116618 -0.080517009 1.1950001
-0.13884206 -0.08038225 1.1930001
-0.13652496 -0.080247492 1.1910001
-0.1338762 -0.079910599 1.1860001
-0.13135608 -0.079641081 1.182
-0.12895933 -0.079438955 1.179
-0.12668073 -0.079304196 1.177
-0.12440912 -0.079169437 1.1750001
-0.12204038 -0.078967303 1.1720001
-0.11978453 -0.078832544 1.1700001
-0.11763629 -0.078765169 1.169
-0.11568932 -0.078832544 1.1700001
-0.11373885 -0.07889992 1.171
-0.1116895 -0.07889992 1.171
-0.10964015 -0.07889992 1.171
-0.10731517 -0.078697793 1.1680001
-0.10500069 -0.078495659 1.1650001
-0.10287345 -0.078428276 1.164
-0.10092299 -0.078495659 1.1650001
-0.099053897 -0.07863041 1.1670001
-0.097011551 -0.07863041 1.1670001
-0.094887823 -0.078563027 1.166
-0.092926852 -0.07863041 1.1670001
-0.090962388 -0.078697793 1.1680001
-0.088918291 -0.078697793 1.1680001
-0.086725421 -0.078563027 1.166
-0.084394321 -0.078293525 1.1620001
-0.082289837 -0.078226142 1.161
-0.08039625 -0.078360908 1.1630001
-0.078428276 -0.078428276 1.164
-0.076456808 -0.078495659 1.1650001
-0.074417964 -0.078495659 1.1650001
-0.072441243 -0.078563027 1.166
-0.07040064 -0.078563027 1.166
-0.068418667 -0.07863041 1.1670001
-0.066490076 -0.078765169 1.169
-0.064554483 -0.07889992 1.171
-0.062558517 -0.078967303 1.1720001
-0.060610667 -0.079102062 1.174
-0.05860595 -0.079169437 1.1750001
-0.056742106 -0.079438955 1.179
-0.054817893 -0.079641081 1.182
-0.053017057 -0.080045357 1.1880001
-0.1544143 -0.079869471 1.217
-0.15065776 -0.079016313 1.2040001
-0.14793375 -0.078688167 1.199
-0.14583538 -0.078688167 1.199
-0.14373705 -0.078688167 1.199
-0.1412843 -0.078491278 1.1960001
-0.13860931 -0.07816314 1.1910001
-0.1359518 -0.077835001 1.1860001
-0.13365044 -0.077703744 1.184
-0.13135608 -0.077572487 1.182
-0.12906872 -0.07744123 1.1800001
-0.12668073 -0.077244341 1.177
-0.12430323 -0.07704746 1.174
-0.12204038 -0.076916203 1.1720001
-0.11978453 -0.076784953 1.1700001
-0.11773692 -0.076784953 1.1700001
-0.11568932 -0.076784953 1.1700001
-0.11354459 -0.076719321 1.169
-0.11149874 -0.076719321 1.169
-0.10954653 -0.076784953 1.1700001
-0.10749893 -0.076784953 1.1700001
-0.10527107 -0.076653697 1.1680001
-0.10296184 -0.076456808 1.1650001
-0.10100961 -0.076522432 1.166
-0.098969012 -0.076522432 1.166
-0.097094677 -0.076653697 1.1680001
-0.094969198 -0.076588064 1.1670001
-0.093086109 -0.076719321 1.169
-0.091040254 -0.076719321 1.169
-0.088918291 -0.076653697 1.1680001
-0.08665105 -0.076456808 1.1650001
-0.084466949 -0.076325551 1.1630001
-0.082431599 -0.076325551 1.1630001
-0.080465376 -0.076391175 1.164
-0.078563027 -0.076522432 1.166
-0.076522432 -0.076522432 1.166
-0.074417964 -0.076456808 1.1650001
-0.072379112 -0.076456808 1.1650001
-0.070340261 -0.076456808 1.1650001
-0.068418667 -0.076588064 1.1670001
-0.066433199 -0.076653697 1.1680001
-0.064554483 -0.076850571 1.171
-0.062558517 -0.076916203 1.1720001
-0.060662299 -0.077113092 1.1750001
-0.058655821 -0.077178709 1.176
-0.056693986 -0.077309974 1.1780001
-0.054725137 -0.07744123 1.1800001
-0.05279392 -0.077638119 1.1830001
-0.15053262 -0.076845333 1.2030001
-0.14805713 -0.076653697 1.2
-0.14583538 -0.076589808 1.199
-0.14385693 -0.076653697 1.2
-0.14104804 -0.076270424 1.194
-0.13826017 -0.075887159 1.1880001
-0.13537866 -0.075440012 1.1810001
-0.13331181 -0.075440012 1.1810001
-0.13102268 -0.075312249 1.179
-0.12874056 -0.075184494 1.177
-0.12635784 -0.074992865 1.174
-0.12409148 -0.07486511 1.1720001
-0.12193624 -0.074801229 1.171
-0.11978453 -0.074737348 1.1700001
-0.11763629 -0.074673474 1.169
-0.11559044 -0.074673474 1.169
-0.11335033 -0.074545711 1.1670001
-0.1112126 -0.074481837 1.166
-0.10926563 -0.074545711 1.1670001
-0.10731517 -0.0746096 1.1680001
-0.10527107 -0.0746096 1.1680001
-0.10296184 -0.074417964 1.1650001
-0.10092299 -0.074417964 1.1650001
-0.098799258 -0.074354075 1.164
-0.096762158 -0.074354075 1.164
-0.094725065 -0.074354075 1.164
-0.092767596 -0.074417964 1.1650001
-0.090728745 -0.074417964 1.1650001
-0.088537641 -0.074290209 1.1630001
-0.086427912 -0.074226327 1.1620001
-0.084321685 -0.074162446 1.161
-0.082360715 -0.074226327 1.1620001
-0.08039625 -0.074290209 1.1630001
-0.078360908 -0.074290209 1.1630001
-0.076325551 -0.074290209 1.1630001
-0.074162446 -0.074162446 1.161
-0.072192729 -0.074226327 1.1620001
-0.07015913 -0.074226327 1.1620001
-0.068301417 -0.074417964 1.1650001
-0.066262566 -0.074417964 1.1650001
-0.064389102 -0.0746096 1.1680001
-0.062398378 -0.074673474 1.169
-0.060507413 -0.07486511 1.1720001
-0.058456313 -0.07486511 1.1720001
-0.056597725 -0.075120613 1.176
-0.054632384 -0.075248376 1.1780001
-0.052704666 -0.075440012 1.1810001
-0.15479496 -0.07579615 1.22
-0.15115827 -0.075050615 1.2080001
-0.14879742 -0.074926361 1.2060001
-0.14693007 -0.075050615 1.2080001
-0.1446961 -0.074988484 1.207
-0.1416387 -0.074491456 1.199
-0.13837655 -0.073870182 1.189
-0.13549328 -0.073435292 1.182
-0.13342468 -0.073435292 1.182
-0.13113382 -0.073311031 1.1800001
-0.12895933 -0.0732489 1.179
-0.12646547 -0.073000394 1.1750001
-0.12419736 -0.072876133 1.1730001
-0.12204038 -0.07281401 1.1720001
-0.11978453 -0.072689757 1.1700001
-0.11773692 -0.072689757 1.1700001
-0.11559044 -0.072627619 1.169
-0.11344747 -0.072565503 1.1680001
-0.11130799 -0.072503366 1.1670001
-0.10935927 -0.072565503 1.1680001
-0.10749893 -0.072689757 1.1700001
-0.10545133 -0.072689757 1.1700001
-0.1031386 -0.072503366 1.1670001
-0.10100961 -0.072441243 1.166
-0.098799258 -0.072316982 1.164
-0.096679032 -0.072254859 1.1630001
-0.09464369 -0.072254859 1.1630001
-0.092687964 -0.072316982 1.164
-0.090650864 -0.072316982 1.164
-0.088461511 -0.072192729 1.1620001
-0.086427912 -0.072192729 1.1620001
-0.084321685 -0.072130598 1.161
-0.082431599 -0.072254859 1.1630001
-0.08039625 -0.072254859 1.1630001
-0.078428276 -0.072316982 1.164
-0.076325551 -0.072254859 1.1630001
-0.074162446 -0.072130598 1.161
-0.072130598 -0.072130598 1.161
-0.07015913 -0.072192729 1.1620001
-0.068301417 -0.072379112 1.1650001
-0.066319443 -0.072441243 1.166
-0.064389102 -0.072565503 1.1680001
-0.062398378 -0.072627619 1.169
-0.06045578 -0.072751872 1.171
-0.058456313 -0.07281401 1.1720001
-0.056549601 -0.073000394 1.1750001
-0.054632384 -0.073186778 1.1780001
-0.052660037 -0.073311031 1.1800001
-0.050980829 -0.073870182 1.189
-0.15390679 -0.073238403 1.2130001
-0.15078288 -0.072755381 1.205
-0.14892079 -0.072876133 1.207
-0.14680843 -0.072876133 1.207
-0.14433646 -0.072695009 1.2040001
-0.1412843 -0.072211981 1.1960001
-0.13814378 -0.071668573 1.187
-0.13549328 -0.07136669 1.182
-0.13353756 -0.07142707 1.1830001
-0.13124496 -0.071306311 1.1810001
-0.12895933 -0.071185552 1.179
-0.12646547 -0.070944041 1.1750001
-0.12409148 -0.07076291 1.1720001
-0.12183212 -0.070642151 1.1700001
-0.11957976 -0.070521399 1.1680001
-0.11763629 -0.070581771 1.169
-0.11568932 -0.070642151 1.1700001
-0.11364173 -0.070642151 1.1700001
-0.11140337 -0.070521399 1.1680001
-0.10926563 -0.07046102 1.1670001
-0.10722329 -0.07046102 1.1670001
-0.10527107 -0.070521399 1.1680001
-0.1031386 -0.07046102 1.1670001
-0.10092299 -0.070340261 1.1650001
-0.098629497 -0.07015913 1.1620001
-0.096346512 -0.069977991 1.159
-0.094399549 -0.070038378 1.1600001
-0.092449076 -0.07009875 1.161
-0.09057299 -0.070219509 1.1630001
-0.088309258 -0.070038378 1.1600001
-0.086279154 -0.070038378 1.1600001
-0.0841038 -0.069917619 1.1580001
-0.08221896 -0.070038378 1.1600001
-0.080257989 -0.07009875 1.161
-0.078226142 -0.07009875 1.161
-0.076194294 -0.07009875 1.161
-0.074034691 -0.069977991 1.159
-0.072006345 -0.069977991 1.159
-0.069977991 -0.069977991 1.159
-0.068008281 -0.070038378 1.1600001
-0.06609194 -0.07015913 1.1620001
-0.064168587 -0.070279881 1.164
-0.062238246 -0.07040064 1.166
-0.06024928 -0.07046102 1.1670001
-0.058306683 -0.070581771 1.169
-0.056405213 -0.07076291 1.1720001
-0.054539625 -0.071004413 1.176
-0.052570783 -0.07112518 1.1780001
-0.050766442 -0.071487442 1.184
-0.15416054 -0.071232803 1.215
-0.15115827 -0.07082241 1.2080001
-0.14966108 -0.071115553 1.2130001
-0.14705171 -0.070881039 1.2090001
-0.14445633 -0.070646524 1.205
-0.1416387 -0.07029476 1.199
-0.13860931 -0.069825739 1.1910001
-0.13618106 -0.06964986 1.1880001
-0.1338762 -0.069532603 1.1860001
-0.13157833 -0.069415346 1.184
-0.12917811 -0.06923946 1.1810001
-0.12657309 -0.068946317 1.176
-0.12419736 -0.068770438 1.1730001
-0.12183212 -0.06859456 1.1700001
-0.11947738 -0.068418667 1.1670001
-0.11763629 -0.068535931 1.169
-0.11568932 -0.06859456 1.1700001
-0.11373885 -0.068653181 1.171
-0.11149874 -0.068535931 1.169
-0.1094529 -0.068535931 1.169
-0.10740705 -0.068535931 1.169
-0.1053612 -0.068535931 1.169
-0.1031386 -0.068418667 1.1670001
-0.10092299 -0.068301417 1.1650001
-0.098629497 -0.068125531 1.1620001
-0.096346512 -0.067949645 1.159
-0.094318166 -0.067949645 1.159
-0.092528708 -0.068125531 1.1620001
-0.09057299 -0.06818416 1.1630001
-0.088385381 -0.068066902 1.161
-0.086204782 -0.067949645 1.159
-0.0841038 -0.067891024 1.1580001
-0.08221896 -0.068008281 1.1600001
-0.080188863 -0.068008281 1.1600001
-0.078226142 -0.068066902 1.161
-0.076128669 -0.068008281 1.1600001
-0.074034691 -0.067949645 1.159
-0.072006345 -0.067949645 1.159
-0.069977991 -0.067949645 1.159
-0.068066902 -0.068066902 1.161
-0.066148818 -0.06818416 1.1630001
-0.064168587 -0.068242781 1.164
-0.062291626 -0.068418667 1.1670001
-0.06024928 -0.068418667 1.1670001
-0.058306683 -0.068535931 1.169
-0.056357086 -0.068653181 1.171
-0.054493252 -0.068887696 1.1750001
-0.052526154 -0.069004945 1.177
-0.050723568 -0.069356717 1.1830001
-0.15504871 -0.069504596 1.222
-0.15165879 -0.068935819 1.212
-0.14966108 -0.068992697 1.2130001
-0.14680843 -0.06865143 1.207
-0.14421657 -0.068423927 1.2030001
-0.14175682 -0.068253286 1.2
-0.13919121 -0.068025775 1.1960001
-0.13641033 -0.067684516 1.1900001
-0.1338762 -0.067456998 1.1860001
-0.13146721 -0.067286365 1.1830001
-0.12906872 -0.067115732 1.1800001
-0.12668073 -0.066945098 1.177
-0.12430323 -0.066774465 1.174
-0.12193624 -0.066603832 1.171
-0.11957976 -0.066433199 1.1680001
-0.11753567 -0.066433199 1.1680001
-0.11549157 -0.066433199 1.1680001
-0.1132532 -0.066319443 1.166
-0.11111723 -0.066262566 1.1650001
-0.109172 -0.066319443 1.166
-0.10722329 -0.066376321 1.1670001
-0.1050908 -0.066319443 1.166
-0.10287345 -0.066205688 1.164
-0.1006631 -0.06609194 1.1620001
-0.09845975 -0.065978184 1.1600001
-0.096263394 -0.065864421 1.1580001
-0.094074033 -0.065750666 1.156
-0.092210196 -0.065864421 1.1580001
-0.090261467 -0.065921299 1.159
-0.088233121 -0.065921299 1.159
-0.086130403 -0.065864421 1.1580001
-0.084031172 -0.065807544 1.1570001
-0.08200632 -0.065807544 1.1570001
-0.079981484 -0.065807544 1.1570001
-0.077956632 -0.065807544 1.1570001
-0.07593178 -0.065807544 1.1570001
-0.073970817 -0.065864421 1.1580001
-0.071944222 -0.065864421 1.1580001
-0.069917619 -0.065864421 1.1580001
-0.067949645 -0.065921299 1.159
-0.066035055 -0.066035055 1.161
-0.064003207 -0.066035055 1.161
-0.062078118 -0.066148818 1.1630001
-0.060094394 -0.066205688 1.164
-0.058157045 -0.066319443 1.166
-0.056212708 -0.066433199 1.1680001
-0.054354116 -0.06666071 1.1720001
-0.052481528 -0.066888221 1.176
-0.050637819 -0.067172617 1.1810001
-0.15253472 -0.067200616 1.2190001
-0.15015461 -0.067090355 1.217
-0.14753823 -0.066869847 1.2130001
-0.14505574 -0.066704459 1.21
-0.14258374 -0.066539079 1.207
-0.13942397 -0.066042937 1.1980001
-0.13663958 -0.065712161 1.192
-0.13410197 -0.065491654 1.1880001
-0.13168947 -0.065326273 1.1850001
-0.12928747 -0.065160885 1.182
-0.12700363 -0.065050632 1.1800001
-0.12483263 -0.064995505 1.179
-0.12245689 -0.064830117 1.176
-0.1198869 -0.064554483 1.171
-0.11763629 -0.064444229 1.169
-0.11539268 -0.064333975 1.1670001
-0.11344747 -0.064389102 1.1680001
-0.11130799 -0.064333975 1.1670001
-0.1094529 -0.064444229 1.169
-0.10740705 -0.064444229 1.169
-0.10527107 -0.064389102 1.1680001
-0.10322697 -0.064389102 1.1680001
-0.10100961 -0.064278841 1.166
-0.09854462 -0.064003207 1.161
-0.09618026 -0.063782699 1.1570001
-0.093829885 -0.063562185 1.153
-0.091812037 -0.063562185 1.153
-0.089872077 -0.063617311 1.154
-0.088004731 -0.063727573 1.156
-0.086056024 -0.063782699 1.1570001
-0.0841038 -0.063837834 1.1580001
-0.082077213 -0.063837834 1.1580001
-0.079981484 -0.063782699 1.1570001
-0.077889249 -0.063727573 1.156
-0.075866155 -0.063727573 1.156
-0.073843054 -0.063727573 1.156
-0.071882084 -0.063782699 1.1570001
-0.069917619 -0.063837834 1.1580001
-0.067949645 -0.063892953 1.159
-0.066035055 -0.064003207 1.161
-0.064058334 -0.064058334 1.1620001
-0.06218487 -0.064223722 1.1650001
-0.06024928 -0.064333975 1.1670001
-0.058256809 -0.064389102 1.1680001
-0.056308966 -0.064499363 1.1700001
-0.0544005 -0.064664744 1.1730001
-0.052526154 -0.064885251 1.177
-0.050594937 -0.065050632 1.1800001
-0.15278499 -0.065174013 1.2210001
-0.14990784 -0.06485375 1.215
-0.14765987 -0.064800374 1.2140001
-0.14541538 -0.064746991 1.2130001
-0.14282002 -0.064533487 1.2090001
-0.13942397 -0.063946329 1.1980001
-0.13652496 -0.06357269 1.1910001
-0.13410197 -0.063412555 1.1880001
-0.13157833 -0.063199043 1.184
-0.12939687 -0.063145667 1.1830001
-0.12711126 -0.063038915 1.1810001
-0.12483263 -0.062932156 1.179
-0.12214451 -0.062611893 1.1730001
-0.11978453 -0.062451757 1.1700001
-0.11763629 -0.062398378 1.169
-0.11549157 -0.062345009 1.1680001
-0.11354459 -0.062398378 1.169
-0.11140337 -0.062345009 1.1680001
-0.10926563 -0.062291626 1.1670001
-0.10703953 -0.06218487 1.1650001
-0.10491055 -0.062131494 1.164
-0.10296184 -0.06218487 1.1650001
-0.10074973 -0.062078118 1.1630001
-0.098205104 -0.061757851 1.1570001
-0.095432088 -0.061277449 1.148
-0.093097486 -0.061063942 1.1440001
-0.09117502 -0.061117325 1.1450001
-0.089326933 -0.061224073 1.1470001
-0.087395705 -0.061277449 1.148
-0.08553537 -0.061384212 1.1500001
-0.083595403 -0.061437581 1.151
-0.081651933 -0.06149096 1.1520001
-0.079704963 -0.061544336 1.153
-0.077619739 -0.06149096 1.1520001
-0.075669266 -0.061544336 1.153
-0.073715299 -0.06159772 1.154
-0.071695708 -0.06159772 1.154
-0.069736488 -0.061651092 1.1550001
-0.067773767 -0.061704468 1.156
-0.065864421 -0.061811231 1.1580001
-0.063892953 -0.061864607 1.159
-0.062078118 -0.062078118 1.1630001
-0.060146026 -0.06218487 1.1650001
-0.058206931 -0.062291626 1.1670001
-0.056212708 -0.062345009 1.1680001
-0.054214984 -0.062398378 1.169
-0.052347649 -0.062611893 1.1730001
-0.050423428 -0.062772021 1.176
-0.048570964 -0.063038915 1.1810001
-0.1532855 -0.063243672 1.225
-0.15040137 -0.062933907 1.2190001
-0.14814638 -0.062882274 1.2180001
-0.14601479 -0.062882274 1.2180001
-0.14329253 -0.062624142 1.2130001
-0.13965672 -0.061952986 1.2
-0.13663958 -0.061539963 1.192
-0.13421483 -0.06138508 1.189
-0.13180061 -0.061230201 1.1860001
-0.12961562 -0.061178569 1.1850001
-0.12721887 -0.061023686 1.182
-0.12472676 -0.060817182 1.1780001
-0.12214451 -0.060559046 1.1730001
-0.11978453 -0.060404163 1.1700001
-0.11773692 -0.060404163 1.1700001
-0.1157882 -0.06045578 1.171
-0.11383599 -0.060507413 1.1720001
-0.1116895 -0.06045578 1.171
-0.10954653 -0.060404163 1.1700001
-0.10722329 -0.06024928 1.1670001
-0.10500069 -0.060146026 1.1650001
-0.10305021 -0.060197648 1.166
-0.10083635 -0.060094394 1.164
-0.09803535 -0.05962975 1.1550001
-0.095099583 -0.059061844 1.1440001
-0.092690587 -0.058803707 1.1390001
-0.0908565 -0.058906961 1.141
-0.08909329 -0.059061844 1.1440001
-0.087167323 -0.059113476 1.1450001
-0.085237853 -0.059165098 1.146
-0.08330489 -0.059216727 1.1470001
-0.081510179 -0.059371613 1.1500001
-0.079635836 -0.059474863 1.1520001
-0.077687114 -0.059526492 1.153
-0.075734898 -0.059578124 1.154
-0.073651418 -0.059526492 1.153
-0.07163357 -0.059526492 1.153
-0.069676101 -0.059578124 1.154
-0.067715146 -0.05962975 1.1550001
-0.065864421 -0.059784632 1.1580001
-0.064003207 -0.059939511 1.161
-0.062131494 -0.060094394 1.164
-0.060146026 -0.060146026 1.1650001
-0.058157045 -0.060197648 1.166
-0.056116447 -0.060197648 1.166
-0.054168612 -0.060300905 1.1680001
-0.052258391 -0.06045578 1.171
-0.050337672 -0.060610667 1.174
-0.048447587 -0.060817182 1.1780001
-0.046740375 -0.06128183 1.187
-0.1532855 -0.06109982 1.225
-0.15015461 -0.0607008 1.217
-0.14790313 -0.060650922 1.2160001
-0.14565514 -0.060601044 1.215
-0.14317438 -0.060451411 1.212
-0.13988948 -0.059952635 1.202
-0.13686883 -0.059553616 1.194
-0.13410197 -0.059254356 1.1880001
-0.13168947 -0.059104726 1.1850001
-0.12939687 -0.05900497 1.1830001
-0.12700363 -0.058855332 1.1800001
-0.124515 -0.058655821 1.176
-0.12214451 -0.058506198 1.1730001
-0.11998928 -0.058456313 1.1720001
-0.11793818 -0.058456313 1.1720001
-0.11598597 -0.058506198 1.1730001
-0.11393312 -0.058506198 1.1730001
-0.1116895 -0.058406439 1.171
-0.10935927 -0.058256809 1.1680001
-0.10694765 -0.058057293 1.164
-0.10482043 -0.058007423 1.1630001
-0.10287345 -0.058057293 1.164
-0.10057647 -0.057907663 1.161
-0.097865589 -0.057508644 1.153
-0.09501645 -0.057009868 1.143
-0.092690587 -0.056810364 1.1390001
-0.090697244 -0.056810364 1.1390001
-0.088937536 -0.056959994 1.1420001
-0.087167323 -0.057109628 1.1450001
-0.085312232 -0.057209384 1.1470001
-0.083232261 -0.057159498 1.146
-0.081368417 -0.057259254 1.148
-0.079428449 -0.057309136 1.149
-0.077619739 -0.057458766 1.1520001
-0.075669266 -0.057508644 1.153
-0.073715299 -0.057558522 1.154
-0.07163357 -0.057508644 1.153
-0.069615722 -0.057508644 1.153
-0.06765651 -0.057558522 1.154
-0.065864421 -0.057758033 1.1580001
-0.063892953 -0.057807911 1.159
-0.061971355 -0.057907663 1.161
-0.059991144 -0.057957541 1.1620001
-0.058057293 -0.058057293 1.164
-0.056068327 -0.058107179 1.1650001
-0.054168612 -0.058256809 1.1680001
-0.052258391 -0.058406439 1.171
-0.050380554 -0.05860595 1.1750001
-0.048406456 -0.058705702 1.177
-0.04658287 -0.05900497 1.1830001
-0.15228446 -0.05857094 1.217
-0.15015461 -0.05857094 1.217
-0.14778149 -0.058474693 1.215
-0.14565514 -0.058474693 1.215
-0.14317438 -0.058330309 1.212
-0.13988948 -0.057849035 1.202
-0.13686883 -0.057464015 1.194
-0.1338762 -0.057078999 1.1860001
-0.13146721 -0.056934617 1.1830001
-0.12906872 -0.056790233 1.1800001
-0.12689598 -0.056742106 1.179
-0.124515 -0.056597725 1.176
-0.12224864 -0.056501471 1.174
-0.11998928 -0.056405213 1.1720001
-0.11793818 -0.056405213 1.1720001
-0.1157882 -0.056357086 1.171
-0.11373885 -0.056357086 1.171
-0.11149874 -0.056260832 1.169
-0.10926563 -0.056164581 1.1670001
-0.10685578 -0.055972073 1.1630001
-0.10482043 -0.055972073 1.1630001
-0.1026967 -0.055923946 1.1620001
-0.10040321 -0.055779561 1.159
-0.097780712 -0.055442672 1.1520001
-0.095265836 -0.055153906 1.146
-0.092934728 -0.054961398 1.1420001
-0.0908565 -0.054913267 1.141
-0.089015409 -0.055009525 1.143
-0.087243453 -0.055153906 1.146
-0.085460991 -0.055298291 1.149
-0.08337751 -0.055250157 1.148
-0.081368417 -0.055250157 1.148
-0.079359323 -0.055250157 1.148
-0.077552356 -0.055394541 1.151
-0.075603642 -0.055442672 1.1520001
-0.073651418 -0.055490796 1.153
-0.071571454 -0.055442672 1.1520001
-0.06955535 -0.055442672 1.1520001
-0.067539252 -0.055442672 1.1520001
-0.065750666 -0.05563518 1.156
-0.063892953 -0.055779561 1.159
-0.061917983 -0.055827688 1.1600001
-0.059887886 -0.055827688 1.1600001
-0.057907663 -0.055875815 1.161
-0.055972073 -0.055972073 1.1630001
-0.054122232 -0.056164581 1.1670001
-0.052258391 -0.056357086 1.171
-0.050337672 -0.056501471 1.174
-0.048406456 -0.056645852 1.177
-0.046425361 -0.056742106 1.179
-0.15265985 -0.056580227 1.22
-0.14941432 -0.056162834 1.2110001
-0.14753823 -0.056255583 1.2130001
-0.14493586 -0.056070078 1.2090001
-0.14293814 -0.056116454 1.21
-0.14000587 -0.055791814 1.2030001
-0.13732736 -0.055559926 1.1980001
-0.13421483 -0.055142529 1.189
-0.13146721 -0.054864269 1.1830001
-0.12895933 -0.054678757 1.179
-0.12678836 -0.054632384 1.1780001
-0.12462088 -0.054586004 1.177
-0.12235277 -0.054493252 1.1750001
-0.11998928 -0.054354116 1.1720001
-0.11783754 -0.054307736 1.171
-0.11568932 -0.054261364 1.1700001
-0.11364173 -0.054261364 1.1700001
-0.11130799 -0.054122232 1.1670001
-0.10907838 -0.054029476 1.1650001
-0.1067639 -0.053890344 1.1620001
-0.10473029 -0.053890344 1.1620001
-0.10260832 -0.053843968 1.161
-0.10022996 -0.053658459 1.1570001
-0.097865589 -0.053472951 1.153
-0.095681481 -0.053380195 1.151
-0.093422994 -0.053241063 1.148
-0.09117502 -0.053101934 1.1450001
-0.089249045 -0.053148311 1.146
-0.087395705 -0.053241063 1.148
-0.08553537 -0.053333819 1.1500001
-0.083450146 -0.053287443 1.149
-0.081368417 -0.053241063 1.148
-0.079359323 -0.053241063 1.148
-0.077417605 -0.053287443 1.149
-0.075472392 -0.053333819 1.1500001
-0.073587552 -0.053426575 1.1520001
-0.071509317 -0.053380195 1.151
-0.06955535 -0.053426575 1.1520001
-0.067539252 -0.053426575 1.1520001
-0.06563691 -0.053519327 1.154
-0.063672446 -0.053565707 1.1550001
-0.061811231 -0.053704839 1.1580001
-0.059836257 -0.053751212 1.159
-0.057957541 -0.053890344 1.1620001
-0.0560202 -0.0539831 1.164
-0.054122232 -0.054122232 1.1670001
-0.052213769 -0.054261364 1.1700001
-0.050294802 -0.0544005 1.1730001
-0.048406456 -0.054586004 1.177
-0.046385989 -0.054632384 1.1780001
-0.044512521 -0.054864269 1.1830001
-0.14990784 -0.054221984 1.215
-0.14765987 -0.054177362 1.2140001
-0.14493586 -0.053954225 1.2090001
-0.14352879 -0.054221984 1.215
-0.14035502 -0.053820346 1.2060001
-0.13744199 -0.05350795 1.199
-0.13421483 -0.053061679 1.189
-0.13146721 -0.05279392 1.1830001
-0.12906872 -0.052660037 1.1800001
-0.12678836 -0.052570783 1.1780001
-0.12462088 -0.052526154 1.177
-0.12224864 -0.05239227 1.174
-0.1198869 -0.052258391 1.171
-0.11773692 -0.052213769 1.1700001
-0.11549157 -0.052124511 1.1680001
-0.11335033 -0.052079882 1.1670001
-0.11102185 -0.051946003 1.164
-0.10870386 -0.05181212 1.161
-0.10639638 -0.051678244 1.1580001
-0.10436978 -0.051678244 1.1580001
-0.10234318 -0.051678244 1.1580001
-0.10022996 -0.051633611 1.1570001
-0.097950466 -0.051499732 1.154
-0.095847733 -0.051455103 1.153
-0.093585767 -0.051321223 1.1500001
-0.091334276 -0.051187344 1.1470001
-0.089249045 -0.051142715 1.146
-0.087319583 -0.051187344 1.1470001
-0.085312232 -0.051187344 1.1470001
-0.083232261 -0.051142715 1.146
-0.081084907 -0.051053457 1.1440001
-0.079151943 -0.05109809 1.1450001
-0.07721547 -0.051142715 1.146
-0.075209871 -0.051142715 1.146
-0.073268153 -0.051187344 1.1470001
-0.071322933 -0.051231965 1.148
-0.069374219 -0.051276594 1.149
-0.067363366 -0.051276594 1.149
-0.065409407 -0.051321223 1.1500001
-0.063507058 -0.051410478 1.1520001
-0.061651092 -0.051544361 1.1550001
-0.059733 -0.051633611 1.1570001
-0.057758033 -0.051678244 1.1580001
-0.055875815 -0.05181212 1.161
-0.053936727 -0.051901374 1.1630001
-0.052035253 -0.052035253 1.166
-0.050123289 -0.052169137 1.169
-0.048241951 -0.052347649 1.1730001
-0.046307229 -0.052481528 1.176
-0.044362012 -0.052615408 1.179
-0.14778149 -0.052095633 1.215
-0.14493586 -0.051838376 1.2090001
-0.14411943 -0.05231002 1.22
-0.14093693 -0.051924128 1.2110001
-0.13790052 -0.051581111 1.2030001
-0.1344406 -0.051066589 1.1910001
-0.13191172 -0.050895076 1.187
-0.12939687 -0.050723568 1.1830001
-0.12700363 -0.050594937 1.1800001
-0.12472676 -0.050509185 1.1780001
-0.12245689 -0.050423428 1.176
-0.12019403 -0.050337672 1.174
-0.11783754 -0.050209042 1.171
-0.1157882 -0.050209042 1.171
-0.11354459 -0.050123289 1.169
-0.11130799 -0.050037537 1.1670001
-0.10879749 -0.04982315 1.1620001
-0.10648826 -0.049694516 1.159
-0.1044599 -0.049694516 1.159
-0.10243156 -0.049694516 1.159
-0.10040321 -0.049694516 1.159
-0.098205104 -0.049608767 1.1570001
-0.096097127 -0.049565885 1.156
-0.093911275 -0.049480133 1.154
-0.091652788 -0.049351502 1.151
-0.08948268 -0.04926575 1.149
-0.087319583 -0.049179994 1.1470001
-0.085237853 -0.049137119 1.146
-0.083232261 -0.049137119 1.146
-0.081155792 -0.049094241 1.1450001
-0.07922107 -0.049137119 1.146
-0.07721547 -0.049137119 1.146
-0.075209871 -0.049137119 1.146
-0.073140398 -0.049094241 1.1450001
-0.071136557 -0.049094241 1.1450001
-0.06925346 -0.049179994 1.1470001
-0.067304738 -0.049222868 1.148
-0.065352522 -0.04926575 1.149
-0.063451931 -0.049351502 1.151
-0.061651092 -0.049523011 1.1550001
-0.059733 -0.049608767 1.1570001
-0.057907663 -0.049780272 1.161
-0.055972073 -0.049866032 1.1630001
-0.054029476 -0.049951781 1.1650001
-0.052124511 -0.050080415 1.1680001
-0.05025192 -0.05025192 1.1720001
-0.048283074 -0.050337672 1.174
-0.046307229 -0.050423428 1.176
-0.044399638 -0.050594937 1.1800001
-0.14481597 -0.049681395 1.2080001
-0.14105329 -0.0498459 1.212
-0.13755663 -0.049352378 1.2
-0.13432772 -0.048941109 1.1900001
-0.13168947 -0.048735473 1.1850001
-0.12939687 -0.048653223 1.1830001
-0.12700363 -0.048529837 1.1800001
-0.12462088 -0.048406456 1.177
-0.12224864 -0.048283074 1.174
-0.11998928 -0.048200823 1.1720001
-0.11783754 -0.048159692 1.171
-0.11568932 -0.048118569 1.1700001
-0.11354459 -0.048077438 1.169
-0.1112126 -0.04795406 1.166
-0.10861024 -0.047707301 1.1600001
-0.1063045 -0.047583915 1.1570001
-0.10418952 -0.047542788 1.156
-0.10225481 -0.047583915 1.1570001
-0.10031659 -0.047625046 1.1580001
-0.09803535 -0.047501665 1.1550001
-0.095764615 -0.047378283 1.1520001
-0.093504377 -0.047254901 1.149
-0.091334276 -0.047172651 1.1470001
-0.089249045 -0.047131516 1.146
-0.087015063 -0.047008138 1.143
-0.084940344 -0.046967015 1.1420001
-0.082869112 -0.046925887 1.141
-0.080872275 -0.046925887 1.141
-0.078875422 -0.046925887 1.141
-0.077013336 -0.047008138 1.143
-0.075012982 -0.047008138 1.143
-0.07288488 -0.046925887 1.141
-0.07082592 -0.04688476 1.1400001
-0.069011942 -0.047008138 1.143
-0.067070231 -0.047049265 1.1440001
-0.065125011 -0.047090396 1.1450001
-0.063231416 -0.047172651 1.1470001
-0.061437581 -0.047337152 1.151
-0.05962975 -0.047501665 1.1550001
-0.057758033 -0.047625046 1.1580001
-0.055827688 -0.047707301 1.1600001
-0.053890344 -0.047789551 1.1620001
-0.051990632 -0.047912937 1.1650001
-0.050080415 -0.048036315 1.1680001
-0.048159692 -0.048159692 1.171
-0.046228476 -0.048283074 1.174
-0.044324387 -0.048447587 1.1780001
-0.1344406 -0.046897888 1.1910001
-0.13168947 -0.046661623 1.1850001
-0.12939687 -0.04658287 1.1830001
-0.12689598 -0.046425361 1.179
-0.12462088 -0.046346609 1.177
-0.12224864 -0.046228476 1.174
-0.12009166 -0.0461891 1.1730001
-0.11783754 -0.046110343 1.171
-0.11588708 -0.046149723 1.1720001
-0.11364173 -0.046070967 1.1700001
-0.11130799 -0.045952838 1.1670001
-0.10879749 -0.045755953 1.1620001
-0.10648826 -0.045637824 1.159
-0.1044599 -0.045637824 1.159
-0.10234318 -0.045598447 1.1580001
-0.10040321 -0.045637824 1.159
-0.09803535 -0.045480315 1.1550001
-0.095764615 -0.045362186 1.1520001
-0.093504377 -0.045244053 1.149
-0.091493532 -0.045244053 1.149
-0.089326933 -0.0451653 1.1470001
-0.0870912 -0.045047171 1.1440001
-0.084865957 -0.044929039 1.141
-0.082796492 -0.044889662 1.1400001
-0.080872275 -0.044929039 1.141
-0.078944556 -0.044968415 1.1420001
-0.077080712 -0.045047171 1.1440001
-0.075078614 -0.045047171 1.1440001
-0.073012643 -0.045007791 1.143
-0.071012296 -0.045007791 1.143
-0.069072329 -0.045047171 1.1440001
-0.067128859 -0.045086548 1.1450001
-0.065238774 -0.0451653 1.1470001
-0.063341677 -0.045244053 1.149
-0.06149096 -0.045362186 1.1520001
-0.059681375 -0.045519691 1.156
-0.057807911 -0.045637824 1.159
-0.055875815 -0.045716573 1.161
-0.053936727 -0.045795336 1.1630001
-0.052079882 -0.045952838 1.1670001
-0.050209042 -0.046110343 1.171
-0.048283074 -0.046228476 1.174
-0.046346609 -0.046346609 1.177
-0.044362012 -0.046425361 1.179
-0.042478044 -0.046622243 1.184
-0.13466635 -0.044888787 1.1930001
-0.13180061 -0.044625401 1.1860001
-0.12939687 -0.044512521 1.1830001
-0.12689598 -0.044362012 1.179
-0.124515 -0.044249129 1.176
-0.12214451 -0.044136252 1.1730001
-0.11998928 -0.044098627 1.1720001
-0.11773692 -0.044023372 1.1700001
-0.11559044 -0.043985743 1.169
-0.11335033 -0.043910492 1.1670001
-0.11102185 -0.043797608 1.164
-0.10870386 -0.043684728 1.161
-0.10639638 -0.043571852 1.1580001
-0.10427964 -0.043534223 1.1570001
-0.10207804 -0.043458972 1.1550001
-0.10014332 -0.043496594 1.156
-0.097865589 -0.04338371 1.153
-0.095681481 -0.043308459 1.151
-0.093341619 -0.043157954 1.1470001
-0.09117502 -0.043082703 1.1450001
-0.089015409 -0.043007448 1.143
-0.08686281 -0.04293219 1.141
-0.084717207 -0.042856939 1.1390001
-0.082651228 -0.042819314 1.138
-0.080659635 -0.042819314 1.138
-0.078668036 -0.042819314 1.138
-0.076878577 -0.04293219 1.141
-0.074947365 -0.042969819 1.1420001
-0.073076516 -0.043045074 1.1440001
-0.071136557 -0.043082703 1.1450001
-0.069132708 -0.043082703 1.1450001
-0.067128859 -0.043082703 1.1450001
-0.065068133 -0.043045074 1.1440001
-0.063176289 -0.043120325 1.146
-0.061330829 -0.043233208 1.149
-0.059474863 -0.043346088 1.1520001
-0.057608403 -0.043458972 1.1550001
-0.055683307 -0.043534223 1.1570001
-0.053751212 -0.043609474 1.159
-0.051901374 -0.043759983 1.1630001
-0.050037537 -0.043910492 1.1670001
-0.048159692 -0.044060998 1.171
-0.046267856 -0.044211503 1.1750001
-0.044249129 -0.044249129 1.176
-0.042334538 -0.044399638 1.1800001
-0.13224512 -0.042693306 1.1900001
-0.12972501 -0.0425498 1.1860001
-0.12711126 -0.04237042 1.1810001
-0.12483263 -0.04229866 1.179
-0.12245689 -0.042191029 1.176
-0.12019403 -0.04211928 1.174
-0.11793818 -0.042047527 1.1720001
-0.11568932 -0.04197577 1.1700001
-0.11344747 -0.041904021 1.1680001
-0.11111723 -0.04179639 1.1650001
-0.10889112 -0.041724637 1.1630001
-0.10658014 -0.041617006 1.1600001
-0.1044599 -0.041581128 1.159
-0.10234318 -0.041545253 1.1580001
-0.10031659 -0.041545253 1.1580001
-0.09803535 -0.041437622 1.1550001
-0.095764615 -0.041329991 1.1520001
-0.093422994 -0.041186482 1.148
-0.091334276 -0.041150611 1.1470001
-0.089171171 -0.041078854 1.1450001
-0.0870912 -0.041042976 1.1440001
-0.084865957 -0.040935345 1.141
-0.082796492 -0.040899474 1.1400001
-0.080730513 -0.040863592 1.1390001
-0.078944556 -0.040971223 1.1420001
-0.077148095 -0.041078854 1.1450001
-0.075275503 -0.041150611 1.1470001
-0.073332027 -0.041186482 1.148
-0.071385063 -0.04122236 1.149
-0.069374219 -0.04122236 1.149
-0.067304738 -0.041186482 1.148
-0.065238774 -0.041150611 1.1470001
-0.063286543 -0.041186482 1.148
-0.061384212 -0.041258242 1.1500001
-0.059526492 -0.041365866 1.153
-0.057608403 -0.041437622 1.1550001
-0.055731438 -0.041545253 1.1580001
-0.053843968 -0.041652881 1.161
-0.051946003 -0.041760512 1.164
-0.050123289 -0.041939896 1.169
-0.048200823 -0.042047527 1.1720001
-0.046267856 -0.042155158 1.1750001
-0.044286758 -0.042226911 1.177
-0.042334538 -0.042334538 1.1800001
-0.13280077 -0.040781341 1.1950001
-0.12983437 -0.040508326 1.187
-0.12721887 -0.040337693 1.182
-0.12472676 -0.040201191 1.1780001
-0.12235277 -0.040098809 1.1750001
-0.12009166 -0.040030558 1.1730001
-0.11793818 -0.039996427 1.1720001
-0.11568932 -0.039928176 1.1700001
-0.11344747 -0.039859924 1.1680001
-0.1112126 -0.039791662 1.166
-0.10889112 -0.039689288 1.1630001
-0.106672 -0.039621033 1.161
-0.10436978 -0.039518654 1.1580001
-0.10216642 -0.0394504 1.156
-0.099970065 -0.039382145 1.154
-0.097780712 -0.039313894 1.1520001
-0.095515229 -0.039211512 1.149
-0.093341619 -0.039143261 1.1470001
-0.091095388 -0.039040878 1.1440001
-0.089015409 -0.039006751 1.143
-0.08693894 -0.038972627 1.1420001
-0.084791586 -0.038904376 1.1400001
