# .PCD v0.7 - Point Cloud Data file format
VERSION 0.7
FIELDS x y z
SIZE 4 4 4
TYPE F F F
COUNT 1 1 1
WIDTH 1414
HEIGHT 1
VIEWPOINT 0 0 0 1 0 0 0
POINTS 1414
DATA ascii
-0.023406504 -0.10482043 1.1630001
-0.021407908 -0.10500069 1.1650001
-0.019385682 -0.1050908 1.166
-0.017345086 -0.1050908 1.166
-0.015343864 -0.1053612 1.169
-0.013343519 -0.10572172 1.1730001
-0.011338796 -0.10617237 1.1780001
-0.0093086986 -0.10653288 1.182
-0.0072646006 -0.10689341 1.1860001
-0.0052065006 -0.10725392 1.1900001
-0.0031317759 -0.10752431 1.1930001
-0.0010439253 -0.10752431 1.1930001
0.0010421752 -0.10734405 1.1910001
0.0031396514 -0.10779469 1.1960001
-0.10017045 -0.106497 1.205
-0.098468497 -0.1069389 1.21
-0.096191637 -0.10676214 1.2080001
-0.093921773 -0.10658538 1.2060001
-0.0913544 -0.10605511 1.2
-0.088882409 -0.10561322 1.1950001
-0.086500548 -0.10525969 1.1910001
-0.084416196 -0.10525969 1.1910001
-0.082055323 -0.10490617 1.187
-0.079641081 -0.10446428 1.182
-0.076981835 -0.10366887 1.1730001
-0.074673474 -0.10331535 1.169
-0.072316982 -0.10287345 1.164
-0.07015913 -0.1026967 1.1620001
-0.068066902 -0.10260832 1.161
-0.065921299 -0.10243156 1.159
-0.063727573 -0.10216642 1.156
-0.061651092 -0.10207804 1.1550001
-0.059526492 -0.10190128 1.153
-0.057508644 -0.10190128 1.153
-0.055394541 -0.10172452 1.151
-0.053380195 -0.10172452 1.151
-0.051365849 -0.10172452 1.151
-0.04926575 -0.10154776 1.149
-0.047254901 -0.10154776 1.149
-0.045244053 -0.10154776 1.149
-0.04338371 -0.10190128 1.153
-0.041365866 -0.10190128 1.153
-0.039348017 -0.10190128 1.153
-0.03726542 -0.10172452 1.151
-0.035342954 -0.10198966 1.154
-0.033323355 -0.10198966 1.154
-0.03130376 -0.10198966 1.154
-0.029284159 -0.10198966 1.154
-0.027311815 -0.10216642 1.156
-0.025332471 -0.10234318 1.1580001
-0.023346126 -0.10251994 1.1600001
-0.021334402 -0.10260832 1.161
-0.019352432 -0.10287345 1.164
-0.017315334 -0.10287345 1.164
-0.01533074 -0.10322697 1.1680001
-0.013309391 -0.10340373 1.1700001
-0.01130992 -0.10384563 1.1750001
-0.0092850719 -0.10419914 1.179
-0.0072462237 -0.10455266 1.1830001
-0.0051933755 -0.10490617 1.187
-0.0031239004 -0.10517132 1.1900001
-0.0010421752 -0.10525969 1.1910001
0.001040425 -0.10508294 1.189
0.0031422763 -0.10578997 1.197
-0.10008733 -0.10430153 1.2040001
-0.098142974 -0.10447479 1.2060001
-0.095793493 -0.1042149 1.2030001
-0.093766026 -0.10430153 1.2040001
-0.091202147 -0.10378175 1.1980001
-0.088882409 -0.10352186 1.1950001
-0.086500548 -0.10317535 1.1910001
-0.084203556 -0.10291546 1.1880001
-0.081778817 -0.10248232 1.1830001
-0.079371579 -0.10204917 1.1780001
-0.076981835 -0.10161602 1.1730001
-0.0746096 -0.10118288 1.1680001
-0.072379112 -0.10092299 1.1650001
-0.07015913 -0.1006631 1.1620001
-0.068008281 -0.10048985 1.1600001
-0.065864421 -0.10031659 1.1580001
-0.063672446 -0.1000567 1.1550001
-0.061651092 -0.1000567 1.1550001
-0.05962975 -0.1000567 1.1550001
-0.057558522 -0.099970065 1.154
-0.055538923 -0.099970065 1.154
-0.053519327 -0.099970065 1.154
-0.051455103 -0.099883437 1.153
-0.049308628 -0.099623546 1.1500001
-0.047254901 -0.099536918 1.149
-0.045244053 -0.099536918 1.149
-0.043308459 -0.099710181 1.151
-0.041294113 -0.099710181 1.151
-0.039313894 -0.099796809 1.1520001
-0.03726542 -0.099710181 1.151
-0.035312325 -0.099883437 1.153
-0.033323355 -0.099970065 1.154
-0.03130376 -0.099970065 1.154
-0.029309537 -0.1000567 1.1550001
-0.027335443 -0.10022996 1.1570001
-0.025376223 -0.10048985 1.1600001
-0.02336625 -0.10057647 1.161
-0.021334402 -0.10057647 1.161
-0.019352432 -0.10083635 1.164
-0.017330211 -0.10092299 1.1650001
-0.015356991 -0.10135613 1.1700001
-0.013332142 -0.10152939 1.1720001
-0.01132917 -0.10196254 1.177
-0.0092850719 -0.10213579 1.179
-0.0072523491 -0.10256894 1.184
-0.0051977504 -0.10291546 1.1880001
-0.0031291507 -0.10326197 1.192
-0.0010456754 -0.10352186 1.1950001
0.0010439253 -0.10334861 1.1930001
-0.10025358 -0.10236418 1.2060001
-0.09749195 -0.10168515 1.1980001
-0.094997197 -0.10126076 1.1930001
-0.092987224 -0.10134563 1.194
-0.090821505 -0.10126076 1.1930001
-0.088733651 -0.10126076 1.1930001
-0.086355284 -0.10092123 1.189
-0.083990924 -0.10058172 1.1850001
-0.08143317 -0.099987566 1.1780001
-0.079034686 -0.099563174 1.1730001
-0.076588064 -0.099053897 1.1670001
-0.074354075 -0.098799258 1.164
-0.072130598 -0.09854462 1.161
-0.069977991 -0.098374866 1.159
-0.067832395 -0.098205104 1.1570001
-0.065693788 -0.09803535 1.1550001
-0.063617311 -0.097950466 1.154
-0.061544336 -0.097865589 1.153
-0.059474863 -0.097780712 1.1520001
-0.057408892 -0.097695827 1.151
-0.055394541 -0.097695827 1.151
-0.053380195 -0.097695827 1.151
-0.051410478 -0.097780712 1.1520001
-0.04926575 -0.097526073 1.149
-0.047213774 -0.097441189 1.148
-0.045047171 -0.097101673 1.1440001
-0.043120325 -0.097271435 1.146
-0.041078854 -0.097186558 1.1450001
-0.039143261 -0.097356319 1.1470001
-0.037135914 -0.097356319 1.1470001
-0.035189819 -0.097526073 1.149
-0.033207852 -0.097610958 1.1500001
-0.031195253 -0.097610958 1.1500001
-0.029208032 -0.097695827 1.151
-0.027240936 -0.097865589 1.153
-0.025310595 -0.098205104 1.1570001
-0.023285747 -0.098205104 1.1570001
-0.021279277 -0.098289989 1.1580001
-0.019285928 -0.09845975 1.1600001
-0.017300459 -0.098714389 1.1630001
-0.01533074 -0.099138781 1.1680001
-0.013298015 -0.099223658 1.169
-0.011290669 -0.099563174 1.1730001
-0.0092456946 -0.099648051 1.174
-0.0072278478 -0.10015733 1.1800001
-0.0051802495 -0.10049684 1.184
-0.0031160251 -0.10075147 1.187
-0.0010395501 -0.10083636 1.1880001
0.0010413001 -0.10100612 1.1900001
-0.097085051 -0.099172905 1.1930001
-0.094837949 -0.099006653 1.1910001
-0.093065105 -0.099339157 1.1950001
-0.090821505 -0.099172905 1.1930001
-0.088733651 -0.099172905 1.1930001
-0.086355284 -0.098840386 1.189
-0.083849162 -0.098341614 1.1830001
-0.081364043 -0.097842835 1.177
-0.078967303 -0.097427189 1.1720001
-0.076588064 -0.097011551 1.1670001
-0.074290209 -0.096679032 1.1630001
-0.072192729 -0.096595906 1.1620001
-0.07009875 -0.096512765 1.161
-0.067891024 -0.096263394 1.1580001
-0.065693788 -0.096014 1.1550001
-0.063617311 -0.095930874 1.154
-0.06159772 -0.095930874 1.154
-0.059578124 -0.095930874 1.154
-0.057458766 -0.095764615 1.1520001
-0.055442672 -0.095764615 1.1520001
-0.053380195 -0.095681481 1.151
-0.051455103 -0.095847733 1.153
-0.04939438 -0.095764615 1.1520001
-0.047337152 -0.095681481 1.151
-0.0451653 -0.095348969 1.1470001
-0.043157954 -0.095348969 1.1470001
-0.041114729 -0.095265836 1.146
-0.039177384 -0.095432088 1.148
-0.037135914 -0.095348969 1.1470001
-0.035159193 -0.095432088 1.148
-0.033150095 -0.095432088 1.148
-0.031168127 -0.095515229 1.149
-0.029208032 -0.095681481 1.151
-0.027264563 -0.095930874 1.154
-0.025288716 -0.096097127 1.156
-0.023265621 -0.096097127 1.156
-0.021260899 -0.09618026 1.1570001
-0.019285928 -0.096429646 1.1600001
-0.017330211 -0.096845292 1.1650001
-0.015343864 -0.097177804 1.169
-0.013320765 -0.097344063 1.171
-0.011290669 -0.09751033 1.1730001
-0.0092535708 -0.097676583 1.1750001
-0.0072339741 -0.098175354 1.1810001
-0.0051846248 -0.098507866 1.1850001
-0.003110775 -0.098507866 1.1850001
-0.001040425 -0.098840386 1.189
0.0010456754 -0.099339157 1.1950001
0.0052502528 -0.09975481 1.2
-0.09667816 -0.09667816 1.1880001
-0.094758317 -0.096840918 1.1900001
-0.092987224 -0.097166426 1.194
-0.090745367 -0.097003669 1.192
-0.088510513 -0.096840918 1.1900001
-0.085992143 -0.096352637 1.184
-0.083565645 -0.095945746 1.179
-0.081087537 -0.095457479 1.1730001
-0.078765169 -0.095131956 1.169
-0.076391175 -0.094725065 1.164
-0.074162446 -0.094480924 1.161
-0.071944222 -0.094236791 1.1580001
-0.069857247 -0.094155408 1.1570001
-0.06765651 -0.093911275 1.154
-0.065580033 -0.093829885 1.153
-0.063507058 -0.093748517 1.1520001
-0.06149096 -0.093748517 1.1520001
-0.059526492 -0.093829885 1.153
-0.057458766 -0.093748517 1.1520001
-0.055346418 -0.093585767 1.1500001
-0.053287443 -0.093504377 1.149
-0.051321223 -0.093585767 1.1500001
-0.049351502 -0.093667135 1.151
-0.047296029 -0.093585767 1.1500001
-0.0451653 -0.093341619 1.1470001
-0.043157954 -0.093341619 1.1470001
-0.041150611 -0.093341619 1.1470001
-0.039211512 -0.093504377 1.149
-0.03716829 -0.093422994 1.148
-0.035189819 -0.093504377 1.149
-0.033121221 -0.093341619 1.1470001
-0.031141 -0.093422994 1.148
-0.029131902 -0.093422994 1.148
-0.02717006 -0.093585767 1.1500001
-0.025201214 -0.093748517 1.1520001
-0.023205241 -0.093829885 1.153
-0.021205772 -0.093911275 1.154
-0.019219426 -0.094074033 1.156
-0.017255832 -0.094399549 1.1600001
-0.015291361 -0.094806448 1.1650001
-0.013275264 -0.094969198 1.1670001
-0.011261793 -0.095213339 1.1700001
-0.0092535708 -0.095620237 1.1750001
-0.0072339741 -0.096108504 1.1810001
-0.0051758746 -0.096271262 1.1830001
-0.0030976492 -0.096027128 1.1800001
-0.0010360499 -0.096352637 1.184
0.001040425 -0.096759535 1.189
0.0031396514 -0.097329192 1.1960001
0.0052415025 -0.09749195 1.1980001
-0.097736083 -0.095634237 1.2010001
-0.095474973 -0.095474973 1.199
-0.093298748 -0.095395349 1.1980001
-0.09089762 -0.095076822 1.194
-0.088510513 -0.094758317 1.1900001
-0.085992143 -0.094280541 1.184
-0.083565645 -0.093882397 1.179
-0.081156656 -0.093484245 1.174
-0.078832544 -0.09316574 1.1700001
-0.076588064 -0.092926852 1.1670001
-0.074417964 -0.092767596 1.1650001
-0.072192729 -0.092528708 1.1620001
-0.070038378 -0.092369452 1.1600001
-0.067832395 -0.092130564 1.1570001
-0.065693788 -0.091971308 1.1550001
-0.063617311 -0.091891676 1.154
-0.061544336 -0.091812037 1.153
-0.059578124 -0.091891676 1.154
-0.057508644 -0.091812037 1.153
-0.055394541 -0.091652788 1.151
-0.053333819 -0.091573164 1.1500001
-0.051321223 -0.091573164 1.1500001
-0.04939438 -0.09173242 1.1520001
-0.047337152 -0.091652788 1.151
-0.045322809 -0.091652788 1.151
-0.043308459 -0.091652788 1.151
-0.041365866 -0.091812037 1.153
-0.039382145 -0.091891676 1.154
-0.0372978 -0.09173242 1.1520001
-0.03525107 -0.091652788 1.151
-0.033207852 -0.091573164 1.1500001
-0.031222377 -0.091652788 1.151
-0.029208032 -0.091652788 1.151
-0.02717006 -0.091573164 1.1500001
-0.025179338 -0.091652788 1.151
-0.023225369 -0.091891676 1.154
-0.021242524 -0.092050932 1.156
-0.019252678 -0.092210196 1.1580001
-0.017255832 -0.092369452 1.1600001
-0.015265111 -0.09260834 1.1630001
-0.013263889 -0.092847221 1.166
-0.011261793 -0.09316574 1.1700001
-0.0092614451 -0.093643509 1.176
-0.0072462237 -0.094200917 1.1830001
-0.0051802495 -0.094280541 1.184
-0.0031081496 -0.094280541 1.184
-0.0010378 -0.094439805 1.1860001
0.0010421752 -0.094837949 1.1910001
0.003137026 -0.095156454 1.1950001
-0.09975481 -0.093454503 1.2
-0.097736083 -0.093532383 1.2010001
-0.095474973 -0.093376614 1.199
-0.093142986 -0.093142986 1.1960001
-0.090669252 -0.092753597 1.1910001
-0.088138625 -0.092286319 1.1850001
-0.08570163 -0.091896929 1.1800001
-0.083353005 -0.091585405 1.176
-0.080811016 -0.091040254 1.169
-0.078563027 -0.090806618 1.166
-0.076325551 -0.09057299 1.1630001
-0.074226327 -0.09049511 1.1620001
-0.072068475 -0.090339355 1.1600001
-0.069917619 -0.090183601 1.1580001
-0.067773767 -0.090027831 1.156
-0.06563691 -0.089872077 1.154
-0.063562185 -0.089794196 1.153
-0.06149096 -0.089716323 1.1520001
-0.059526492 -0.089794196 1.153
-0.057508644 -0.089794196 1.153
-0.055298291 -0.08948268 1.149
-0.053287443 -0.08948268 1.149
-0.051231965 -0.089404799 1.148
-0.049351502 -0.089638442 1.151
-0.047254901 -0.08948268 1.149
-0.045244053 -0.08948268 1.149
-0.043195579 -0.089404799 1.148
-0.041258242 -0.089560568 1.1500001
-0.039313894 -0.089716323 1.1520001
-0.03726542 -0.089638442 1.151
-0.035220448 -0.089560568 1.1500001
-0.03317897 -0.08948268 1.149
-0.031168127 -0.08948268 1.149
-0.029131902 -0.089404799 1.148
-0.027075553 -0.089249045 1.146
-0.025135584 -0.08948268 1.149
-0.023164989 -0.089638442 1.151
-0.021187395 -0.089794196 1.153
-0.019186174 -0.089872077 1.154
-0.017196327 -0.090027831 1.156
-0.015225734 -0.090339355 1.1600001
-0.013229763 -0.09057299 1.1630001
-0.011242542 -0.090962388 1.1680001
-0.0092535708 -0.091507532 1.1750001
-0.0072400984 -0.092052683 1.182
-0.0051758746 -0.092130564 1.1830001
-0.003110775 -0.092286319 1.1850001
-0.001036925 -0.092286319 1.1850001
0.001038675 -0.09244208 1.187
0.0031265258 -0.092753597 1.1910001
-0.097247809 -0.090973757 1.1950001
-0.095236085 -0.091049887 1.1960001
-0.093142986 -0.091049887 1.1960001
-0.090669252 -0.090669252 1.1910001
-0.088064238 -0.090136342 1.184
-0.085629001 -0.089755692 1.179
-0.083282135 -0.089451186 1.1750001
-0.080949277 -0.089146666 1.171
-0.078697793 -0.088918291 1.1680001
-0.076456808 -0.088689893 1.1650001
-0.074226327 -0.088461511 1.1620001
-0.072068475 -0.088309258 1.1600001
-0.069917619 -0.088156998 1.1580001
-0.067949645 -0.088233121 1.159
-0.065864421 -0.088156998 1.1580001
-0.063837834 -0.088156998 1.1580001
-0.061704468 -0.088004731 1.156
-0.059681375 -0.088004731 1.156
-0.057508644 -0.087776348 1.153
-0.055346418 -0.087547973 1.1500001
-0.053380195 -0.087624095 1.151
-0.051365849 -0.087624095 1.151
-0.049480133 -0.087852478 1.154
-0.047378283 -0.087700225 1.1520001
-0.045283433 -0.087547973 1.1500001
-0.043233208 -0.087471835 1.149
-0.041258242 -0.087547973 1.1500001
-0.039313894 -0.087700225 1.1520001
-0.03726542 -0.087624095 1.151
-0.035220448 -0.087547973 1.1500001
-0.03317897 -0.087471835 1.149
-0.031195253 -0.087547973 1.1500001
-0.029182656 -0.087547973 1.1500001
-0.02717006 -0.087547973 1.1500001
-0.025179338 -0.087624095 1.151
-0.023205241 -0.087776348 1.153
-0.021224147 -0.087928616 1.1550001
-0.019219426 -0.088004731 1.156
-0.017226081 -0.088156998 1.1580001
-0.015225734 -0.088309258 1.1600001
-0.013263889 -0.088766024 1.166
-0.011271418 -0.089146666 1.171
-0.0092771975 -0.089679569 1.1780001
-0.0072400984 -0.089984089 1.182
-0.0051890002 -0.090288602 1.1860001
-0.0031239004 -0.090593114 1.1900001
-0.0010421752 -0.090669252 1.1910001
0.0010430502 -0.090745367 1.192
0.0031291507 -0.090745367 1.192
-0.096352637 -0.088064238 1.184
-0.094758317 -0.088510513 1.1900001
-0.092364199 -0.088213004 1.1860001
-0.090136342 -0.088064238 1.184
-0.087617971 -0.087617971 1.1780001
-0.085265853 -0.087320454 1.174
-0.082927741 -0.087022945 1.1700001
-0.080672756 -0.086799808 1.1670001
-0.078495659 -0.08665105 1.1650001
-0.076325551 -0.086502299 1.1630001
-0.074098572 -0.086279154 1.1600001
-0.071944222 -0.086130403 1.1580001
-0.069736488 -0.085907266 1.1550001
-0.06765651 -0.085832886 1.154
-0.065523155 -0.085684128 1.1520001
-0.063507058 -0.085684128 1.1520001
-0.061544336 -0.0857585 1.153
-0.059526492 -0.0857585 1.153
-0.057408892 -0.085609742 1.151
-0.055298291 -0.085460991 1.149
-0.053287443 -0.085460991 1.149
-0.051365849 -0.085609742 1.151
-0.04939438 -0.085684128 1.1520001
-0.047296029 -0.08553537 1.1500001
-0.045204677 -0.085386612 1.148
-0.043195579 -0.085386612 1.148
-0.041186482 -0.085386612 1.148
-0.039245639 -0.08553537 1.1500001
-0.037200667 -0.085460991 1.149
-0.035189819 -0.085460991 1.149
-0.033121221 -0.085312232 1.1470001
-0.031113874 -0.085312232 1.1470001
-0.029131902 -0.085386612 1.148
-0.027146433 -0.085460991 1.149
-0.025135584 -0.085460991 1.149
-0.023144865 -0.08553537 1.1500001
-0.02116902 -0.085684128 1.1520001
-0.019186174 -0.085832886 1.154
-0.017181454 -0.085907266 1.1550001
-0.01517323 -0.085981637 1.156
-0.013218387 -0.086427912 1.1620001
-0.011242542 -0.086874187 1.1680001
-0.0092535708 -0.087394841 1.1750001
-0.0072339741 -0.087841108 1.1810001
-0.0051846248 -0.088138625 1.1850001
-0.0031291507 -0.088659264 1.192
-0.0010430502 -0.088659264 1.192
0.0010430502 -0.088659264 1.192
0.0031265258 -0.088584892 1.1910001
-0.09667816 -0.086282656 1.1880001
-0.094439805 -0.086137407 1.1860001
-0.092052683 -0.085846886 1.182
-0.089755692 -0.085629001 1.179
-0.087394841 -0.085338488 1.1750001
-0.085120596 -0.085120596 1.1720001
-0.082927741 -0.084975347 1.1700001
-0.080741897 -0.08483009 1.1680001
-0.07863041 -0.084757462 1.1670001
-0.076456808 -0.084612206 1.1650001
-0.074226327 -0.084394321 1.1620001
-0.072068475 -0.084249057 1.1600001
-0.06979686 -0.083958536 1.156
-0.067715146 -0.083885916 1.1550001
-0.065580033 -0.083740652 1.153
-0.063617311 -0.083813287 1.154
-0.06159772 -0.083813287 1.154
-0.059578124 -0.083813287 1.154
-0.057408892 -0.083595403 1.151
-0.055394541 -0.083595403 1.151
-0.053380195 -0.083595403 1.151
-0.051410478 -0.083668031 1.1520001
-0.04939438 -0.083668031 1.1520001
-0.047378283 -0.083668031 1.1520001
-0.045322809 -0.083595403 1.151
-0.043308459 -0.083595403 1.151
-0.041329991 -0.083668031 1.1520001
-0.039348017 -0.083740652 1.153
-0.03726542 -0.083595403 1.151
-0.03525107 -0.083595403 1.151
-0.03317897 -0.083450146 1.149
-0.031195253 -0.083522774 1.1500001
-0.029208032 -0.083595403 1.151
-0.027217312 -0.083668031 1.1520001
-0.025201214 -0.083668031 1.1520001
-0.023185117 -0.083668031 1.1520001
-0.021205772 -0.083813287 1.154
-0.0192028 -0.083885916 1.1550001
-0.017196327 -0.083958536 1.156
-0.015199482 -0.0841038 1.1580001
-0.013229763 -0.084466949 1.1630001
-0.011242542 -0.08483009 1.1680001
-0.0092378203 -0.085193232 1.1730001
-0.0072339741 -0.085774265 1.1810001
-0.0051977504 -0.086282656 1.1880001
-0.0031422763 -0.08693631 1.197
-0.0010474254 -0.08693631 1.197
0.0010474254 -0.08693631 1.197
0.0031449017 -0.087008946 1.1980001
-0.096840918 -0.084345318 1.1900001
-0.094280541 -0.083920039 1.184
-0.091585405 -0.083353005 1.176
-0.089146666 -0.082998618 1.171
-0.086874187 -0.082785994 1.1680001
-0.084684826 -0.082644224 1.166
-0.082502477 -0.082502477 1.164
-0.08039625 -0.082431599 1.1630001
-0.078293525 -0.082360715 1.1620001
-0.076259919 -0.082360715 1.1620001
-0.074162446 -0.082289837 1.161
-0.072006345 -0.082148083 1.159
-0.069857247 -0.08200632 1.1570001
-0.067715146 -0.081864573 1.1550001
-0.065580033 -0.081722803 1.153
-0.063507058 -0.081651933 1.1520001
-0.061437581 -0.081581056 1.151
-0.059371613 -0.081510179 1.1500001
-0.057309136 -0.081439294 1.149
-0.055298291 -0.081439294 1.149
-0.053287443 -0.081439294 1.149
-0.051321223 -0.081510179 1.1500001
-0.049308628 -0.081510179 1.1500001
-0.047213774 -0.081368417 1.148
-0.0451653 -0.081297539 1.1470001
-0.043195579 -0.081368417 1.148
-0.041294113 -0.081581056 1.151
-0.039279766 -0.081581056 1.151
-0.037233043 -0.081510179 1.1500001
-0.035159193 -0.081368417 1.148
-0.033150095 -0.081368417 1.148
-0.031141 -0.081368417 1.148
-0.029131902 -0.081368417 1.148
-0.027146433 -0.081439294 1.149
-0.025135584 -0.081439294 1.149
-0.023144865 -0.081510179 1.1500001
-0.021150645 -0.081581056 1.151
-0.019152923 -0.081651933 1.1520001
-0.017166575 -0.081793696 1.154
-0.01517323 -0.081935443 1.156
-0.01318426 -0.082148083 1.159
-0.011194414 -0.082431599 1.1630001
-0.0092141945 -0.082927741 1.1700001
-0.007221723 -0.083565645 1.179
-0.0051890002 -0.084061801 1.1860001
-0.0031265258 -0.084416196 1.1910001
-0.0010430502 -0.084487066 1.192
0.0010439253 -0.08455795 1.1930001
0.0031501518 -0.0850541 1.2
-0.094200917 -0.081778817 1.1830001
-0.091663294 -0.081364043 1.177
-0.089222796 -0.081018403 1.1720001
-0.086874187 -0.080741897 1.1680001
-0.084612206 -0.080534503 1.1650001
-0.082431599 -0.08039625 1.1630001
-0.080327116 -0.080327116 1.1620001
-0.078293525 -0.080327116 1.1620001
-0.076194294 -0.080257989 1.161
-0.074098572 -0.080188863 1.1600001
-0.072006345 -0.080119736 1.159
-0.069917619 -0.08005061 1.1580001
-0.067832395 -0.079981484 1.1570001
-0.065807544 -0.079981484 1.1570001
-0.063727573 -0.07991235 1.156
-0.06159772 -0.079774089 1.154
-0.059526492 -0.079704963 1.153
-0.057458766 -0.079635836 1.1520001
-0.055394541 -0.079566702 1.151
-0.053333819 -0.079497583 1.1500001
-0.051365849 -0.079566702 1.151
-0.049351502 -0.079566702 1.151
-0.047296029 -0.079497583 1.1500001
-0.045244053 -0.079428449 1.149
-0.043270838 -0.079497583 1.1500001
-0.041329991 -0.079635836 1.1520001
-0.039313894 -0.079635836 1.1520001
-0.0372978 -0.079635836 1.1520001
-0.035281699 -0.079635836 1.1520001
-0.033294477 -0.079704963 1.153
-0.03130376 -0.079774089 1.154
-0.029258784 -0.079704963 1.153
-0.027240936 -0.079704963 1.153
-0.025201214 -0.079635836 1.1520001
-0.023205241 -0.079704963 1.153
-0.021187395 -0.079704963 1.153
-0.019169547 -0.079704963 1.153
-0.017196327 -0.07991235 1.156
-0.015199482 -0.08005061 1.1580001
-0.013218387 -0.080327116 1.1620001
-0.011213665 -0.080534503 1.1650001
-0.0092614451 -0.081294909 1.176
-0.0072523491 -0.081847943 1.184
-0.005210876 -0.082331844 1.1910001
-0.0031239004 -0.08226271 1.1900001
-0.0010448003 -0.082539223 1.194
0.0010465505 -0.082677484 1.1960001
-0.093882397 -0.079438955 1.179
-0.091351777 -0.079034686 1.1730001
-0.088994414 -0.078765169 1.169
-0.086725421 -0.078563027 1.166
-0.084394321 -0.078293525 1.1620001
-0.08221896 -0.078158766 1.1600001
-0.08005061 -0.078024015 1.1580001
-0.077956632 -0.077956632 1.1570001
-0.075866155 -0.077889249 1.156
-0.073906936 -0.077956632 1.1570001
-0.071882084 -0.077956632 1.1570001
-0.069736488 -0.077821873 1.1550001
-0.06765651 -0.07775449 1.154
-0.06563691 -0.07775449 1.154
-0.063617311 -0.07775449 1.154
-0.061544336 -0.077687114 1.153
-0.059371613 -0.077484988 1.1500001
-0.057309136 -0.077417605 1.149
-0.055250157 -0.077350229 1.148
-0.05319469 -0.077282853 1.1470001
-0.051187344 -0.077282853 1.1470001
-0.049137119 -0.07721547 1.146
-0.047131516 -0.07721547 1.146
-0.04512592 -0.07721547 1.146
-0.043195579 -0.077350229 1.148
-0.04122236 -0.077417605 1.149
-0.039211512 -0.077417605 1.149
-0.0372978 -0.077619739 1.1520001
-0.035312325 -0.077687114 1.153
-0.033323355 -0.07775449 1.154
-0.031249505 -0.077619739 1.1520001
-0.029284159 -0.07775449 1.154
-0.027264563 -0.07775449 1.154
-0.025201214 -0.077619739 1.1520001
-0.023164989 -0.077552356 1.151
-0.021187395 -0.077687114 1.153
-0.019186174 -0.07775449 1.154
-0.017181454 -0.077821873 1.1550001
-0.01517323 -0.077889249 1.156
-0.013195636 -0.078158766 1.1600001
-0.011194414 -0.078360908 1.1630001
-0.0092378203 -0.079034686 1.1730001
-0.0072278478 -0.07950633 1.1800001
-0.0051977504 -0.080045357 1.1880001
-0.003110775 -0.079843223 1.1850001
-0.001040425 -0.080112733 1.189
0.0010421752 -0.080247492 1.1910001
-0.093962029 -0.07744123 1.1800001
-0.091507532 -0.077113092 1.1750001
-0.089070544 -0.076784953 1.1700001
-0.086799808 -0.076588064 1.1670001
-0.08453957 -0.076391175 1.164
-0.082431599 -0.076325551 1.1630001
-0.080188863 -0.076128669 1.1600001
-0.077956632 -0.07593178 1.1570001
-0.075866155 -0.075866155 1.156
-0.073843054 -0.075866155 1.156
-0.071757831 -0.075800531 1.1550001
-0.069676101 -0.075734898 1.154
-0.067539252 -0.075603642 1.1520001
-0.065580033 -0.075669266 1.153
-0.063617311 -0.075734898 1.154
-0.06159772 -0.075734898 1.154
-0.059474863 -0.075603642 1.1520001
-0.057359014 -0.075472392 1.1500001
-0.055250157 -0.075341128 1.148
-0.053241063 -0.075341128 1.148
-0.051187344 -0.075275503 1.1470001
-0.049094241 -0.075144246 1.1450001
-0.047131516 -0.075209871 1.146
-0.0451653 -0.075275503 1.1470001
-0.043195579 -0.075341128 1.148
-0.041186482 -0.075341128 1.148
-0.039211512 -0.07540676 1.149
-0.037362549 -0.075734898 1.154
-0.035404202 -0.075866155 1.156
-0.033381104 -0.075866155 1.156
-0.031249505 -0.075603642 1.1520001
-0.029233407 -0.075603642 1.1520001
-0.027264563 -0.075734898 1.154
-0.025244966 -0.075734898 1.154
-0.023265621 -0.075866155 1.156
-0.021279277 -0.075997412 1.1580001
-0.019269302 -0.076063037 1.159
-0.017240956 -0.076063037 1.159
-0.015212608 -0.076063037 1.159
-0.013218387 -0.076259919 1.1620001
-0.01120404 -0.076391175 1.164
-0.0092220688 -0.076850571 1.171
-0.007221723 -0.077375598 1.179
-0.0051977504 -0.077966258 1.1880001
-0.0031160251 -0.077900626 1.187
-0.0010395501 -0.077966258 1.1880001
0.0010421752 -0.07816314 1.1910001
-0.093723141 -0.075184494 1.177
-0.091273896 -0.07486511 1.1720001
-0.088918291 -0.0746096 1.1680001
-0.08657667 -0.074354075 1.164
-0.084394321 -0.074226327 1.1620001
-0.082289837 -0.074162446 1.161
-0.080119736 -0.074034691 1.159
-0.077821873 -0.073779188 1.1550001
-0.075734898 -0.073715299 1.154
-0.073715299 -0.073715299 1.154
-0.07163357 -0.073651418 1.153
-0.069434598 -0.073459789 1.1500001
-0.067363366 -0.073395915 1.149
-0.065352522 -0.073395915 1.149
-0.063341677 -0.073395915 1.149
-0.061277449 -0.073332027 1.148
-0.059216727 -0.073268153 1.1470001
-0.057159498 -0.073204279 1.146
-0.055153906 -0.073204279 1.146
-0.053101934 -0.073140398 1.1450001
-0.051053457 -0.073076516 1.1440001
-0.048965611 -0.072948761 1.1420001
-0.047008138 -0.073012643 1.143
-0.04512592 -0.073204279 1.146
-0.043195579 -0.073332027 1.148
-0.041186482 -0.073332027 1.148
-0.039143261 -0.073268153 1.1470001
-0.03726542 -0.073523663 1.151
-0.03525107 -0.073523663 1.151
-0.033236727 -0.073523663 1.151
-0.031141 -0.073332027 1.148
-0.029157281 -0.073395915 1.149
-0.027146433 -0.073395915 1.149
-0.025157463 -0.073459789 1.1500001
-0.023164989 -0.073523663 1.151
-0.021205772 -0.073715299 1.154
-0.019219426 -0.073843054 1.156
-0.017226081 -0.073970817 1.1580001
-0.015199482 -0.073970817 1.1580001
-0.013207011 -0.074162446 1.161
-0.011194414 -0.074290209 1.1630001
-0.009198444 -0.0746096 1.1680001
-0.0071910964 -0.074992865 1.174
-0.0051846248 -0.075695522 1.1850001
-0.0031134002 -0.075759403 1.1860001
-0.001038675 -0.075823277 1.187
0.0010413001 -0.076014914 1.1900001
-0.093802772 -0.073186778 1.1780001
-0.091507532 -0.073000394 1.1750001
-0.089070544 -0.072689757 1.1700001
-0.086725421 -0.072441243 1.166
-0.084466949 -0.072254859 1.1630001
-0.082360715 -0.072192729 1.1620001
-0.080188863 -0.072068475 1.1600001
-0.077889249 -0.071819961 1.156
-0.075669266 -0.07163357 1.153
-0.073651418 -0.07163357 1.153
-0.071447194 -0.071447194 1.1500001
-0.069374219 -0.071385063 1.149
-0.067304738 -0.071322933 1.148
-0.065295644 -0.071322933 1.148
-0.063176289 -0.07119868 1.146
-0.061170693 -0.07119868 1.146
-0.059268355 -0.071322933 1.148
-0.057359014 -0.071447194 1.1500001
-0.055250157 -0.071322933 1.148
-0.053101934 -0.071136557 1.1450001
-0.050964206 -0.070950173 1.1420001
-0.048922729 -0.070888035 1.141
-0.046967015 -0.070950173 1.1420001
-0.045086548 -0.071136557 1.1450001
-0.043195579 -0.071322933 1.148
-0.041186482 -0.071322933 1.148
-0.039177384 -0.071322933 1.148
-0.037200667 -0.071385063 1.149
-0.03525107 -0.071509317 1.151
-0.033265602 -0.071571454 1.1520001
-0.031222377 -0.071509317 1.151
-0.029208032 -0.071509317 1.151
-0.027193684 -0.071509317 1.151
-0.025201214 -0.071571454 1.1520001
-0.023205241 -0.07163357 1.153
-0.021187395 -0.07163357 1.153
-0.019219426 -0.071819961 1.156
-0.017270707 -0.072130598 1.161
-0.015265111 -0.072254859 1.1630001
-0.013241137 -0.072316982 1.164
-0.011213665 -0.072379112 1.1650001
-0.0092141945 -0.072689757 1.1700001
-0.0072155977 -0.073186778 1.1780001
-0.0051933755 -0.073745921 1.187
-0.0031239004 -0.073932312 1.1900001
-0.001040425 -0.073870182 1.189
0.0010465505 -0.07430508 1.1960001
-0.093404628 -0.070823289 1.1730001
-0.091118142 -0.070642151 1.1700001
-0.088766024 -0.07040064 1.166
-0.086427912 -0.07015913 1.1620001
-0.084176429 -0.069977991 1.159
-0.082077213 -0.069917619 1.1580001
-0.07991235 -0.06979686 1.156
-0.077687114 -0.069615722 1.153
-0.075472392 -0.069434598 1.1500001
-0.073459789 -0.069434598 1.1500001
-0.071322933 -0.069313832 1.148
-0.069193088 -0.069193088 1.146
-0.067187488 -0.069193088 1.146
-0.065181889 -0.069193088 1.146
-0.06312117 -0.069132708 1.1450001
-0.061063942 -0.069072329 1.1440001
-0.059113476 -0.069132708 1.1450001
-0.057109628 -0.069132708 1.1450001
-0.054913267 -0.068891197 1.141
-0.052730918 -0.068649679 1.1370001
-0.05060719 -0.068468548 1.1340001
-0.048622593 -0.068468548 1.1340001
-0.046720251 -0.0685893 1.136
-0.044929039 -0.068891197 1.141
-0.043082703 -0.069132708 1.1450001
-0.041078854 -0.069132708 1.1450001
-0.03907501 -0.069132708 1.1450001
-0.037103537 -0.069193088 1.146
-0.035189819 -0.069374219 1.149
-0.03317897 -0.069374219 1.149
-0.031195253 -0.069434598 1.1500001
-0.029208032 -0.06949497 1.151
-0.027217312 -0.06955535 1.1520001
-0.025179338 -0.06949497 1.151
-0.023144865 -0.069434598 1.1500001
-0.021150645 -0.06949497 1.151
-0.019152923 -0.06955535 1.1520001
-0.017211204 -0.069857247 1.1570001
-0.015238859 -0.07009875 1.161
-0.013229763 -0.070219509 1.1630001
-0.011213665 -0.070340261 1.1650001
-0.0092141945 -0.070642151 1.1700001
-0.0072155977 -0.07112518 1.1780001
-0.0051977504 -0.07172896 1.1880001
-0.0031291507 -0.071970463 1.192
-0.0010456754 -0.072151601 1.1950001
-0.096189879 -0.069298089 1.182
-0.093484245 -0.068829067 1.174
-0.091196015 -0.068653181 1.171
-0.088766024 -0.068360038 1.166
-0.086427912 -0.068125531 1.1620001
-0.084176429 -0.067949645 1.159
-0.08200632 -0.067832395 1.1570001
-0.079774089 -0.06765651 1.154
-0.077619739 -0.067539252 1.1520001
-0.07540676 -0.067363366 1.149
-0.073395915 -0.067363366 1.149
-0.07119868 -0.067187488 1.146
-0.069132708 -0.067128859 1.1450001
-0.067128859 -0.067128859 1.1450001
-0.065238774 -0.067246117 1.1470001
-0.063176289 -0.067187488 1.146
-0.061117325 -0.067128859 1.1450001
-0.059010219 -0.067011602 1.143
-0.056910116 -0.066894345 1.141
-0.054624509 -0.066542581 1.1350001
-0.052545402 -0.066425323 1.133
-0.050428677 -0.066249438 1.13
-0.048493963 -0.066308066 1.131
-0.046596866 -0.066425323 1.133
-0.044810906 -0.066718459 1.138
-0.043007448 -0.067011602 1.143
-0.041007098 -0.067011602 1.143
-0.03907501 -0.067128859 1.1450001
-0.037103537 -0.067187488 1.146
-0.035220448 -0.067421995 1.1500001
-0.033236727 -0.067480624 1.151
-0.031276628 -0.067597881 1.153
-0.029284159 -0.06765651 1.154
-0.027288191 -0.067715146 1.1550001
-0.025266843 -0.067715146 1.1550001
-0.023245497 -0.067715146 1.1550001
-0.021205772 -0.06765651 1.154
-0.0192028 -0.067715146 1.1550001
-0.017240956 -0.067949645 1.159
-0.015251984 -0.068125531 1.1620001
-0.013229763 -0.06818416 1.1630001
-0.01122329 -0.068360038 1.166
-0.0092220688 -0.068653181 1.171
-0.007221723 -0.069122203 1.179
-0.0052065006 -0.06976711 1.1900001
-0.096108504 -0.067172617 1.1810001
-0.093404628 -0.066717587 1.1730001
-0.090962388 -0.066433199 1.1680001
-0.088613771 -0.066205688 1.164
-0.086279154 -0.065978184 1.1600001
-0.084031172 -0.065807544 1.1570001
-0.081864573 -0.065693788 1.1550001
-0.079635836 -0.065523155 1.1520001
-0.077484988 -0.065409407 1.1500001
-0.075341128 -0.065295644 1.148
-0.073204279 -0.065181889 1.146
-0.071074426 -0.065068133 1.1440001
-0.069011942 -0.065011255 1.143
-0.067070231 -0.065068133 1.1440001
-0.065181889 -0.065181889 1.146
-0.063231416 -0.065238774 1.1470001
-0.061063942 -0.065068133 1.1440001
-0.058803707 -0.064783745 1.1390001
-0.056610856 -0.064556241 1.1350001
-0.054335743 -0.064214967 1.1290001
-0.052267145 -0.064101212 1.1270001
-0.05020554 -0.063987456 1.125
-0.048279576 -0.064044334 1.126
-0.046432361 -0.064214967 1.1290001
-0.044653401 -0.064499363 1.1340001
-0.042856939 -0.064783745 1.1390001
-0.040935345 -0.0648975 1.141
-0.0389385 -0.0648975 1.141
-0.037006408 -0.065011255 1.143
-0.035067316 -0.065125011 1.1450001
-0.033150095 -0.065295644 1.148
-0.031195253 -0.065409407 1.1500001
-0.029208032 -0.065466277 1.151
-0.027217312 -0.065523155 1.1520001
-0.025223089 -0.065580033 1.153
-0.023205241 -0.065580033 1.153
-0.02116902 -0.065523155 1.1520001
-0.019169547 -0.065580033 1.153
-0.017196327 -0.065750666 1.156
-0.015212608 -0.065921299 1.159
-0.013207011 -0.066035055 1.161
-0.011194414 -0.066148818 1.1630001
-0.009198444 -0.066433199 1.1680001
-0.0072094724 -0.066945098 1.177
-0.096108504 -0.065105766 1.1810001
-0.093563877 -0.06477499 1.1750001
-0.091196015 -0.064554483 1.171
-0.088842154 -0.064333975 1.1670001
-0.08657667 -0.064168587 1.164
-0.084321685 -0.064003207 1.161
-0.08200632 -0.063782699 1.1570001
-0.079774089 -0.063617311 1.154
-0.077619739 -0.063507058 1.1520001
-0.075472392 -0.063396804 1.1500001
-0.073395915 -0.063341677 1.149
-0.07119868 -0.063176289 1.146
-0.069193088 -0.063176289 1.146
-0.067187488 -0.063176289 1.146
-0.065238774 -0.063231416 1.1470001
-0.063176289 -0.063176289 1.146
-0.061063942 -0.063066043 1.1440001
-0.058906961 -0.062900655 1.141
-0.056760479 -0.062735267 1.138
-0.054480128 -0.062404506 1.1320001
-0.052313518 -0.062183995 1.128
-0.050250169 -0.062073741 1.126
-0.048322454 -0.062128872 1.1270001
-0.046432361 -0.062239125 1.1290001
-0.044574648 -0.062404506 1.1320001
-0.042781685 -0.062680148 1.1370001
-0.040935345 -0.062900655 1.141
-0.039006751 -0.063010909 1.143
-0.037038784 -0.063066043 1.1440001
-0.035067316 -0.06312117 1.1450001
-0.033092342 -0.063176289 1.146
-0.031168127 -0.063341677 1.149
-0.029208032 -0.063451931 1.151
-0.027264563 -0.063617311 1.154
-0.025266843 -0.063672446 1.1550001
-0.023245497 -0.063672446 1.1550001
-0.021224147 -0.063672446 1.1550001
-0.0192028 -0.063672446 1.1550001
-0.017211204 -0.063782699 1.1570001
-0.015225734 -0.06394808 1.1600001
-0.013218387 -0.064058334 1.1620001
-0.01120404 -0.064168587 1.164
-0.0091905678 -0.064333975 1.1670001
-0.0072155977 -0.064940378 1.1780001
-0.096027128 -0.062985532 1.1800001
-0.093404628 -0.062611893 1.1730001
-0.091196015 -0.062505133 1.171
-0.088918291 -0.062345009 1.1680001
-0.08665105 -0.06218487 1.1650001
-0.084249057 -0.061917983 1.1600001
-0.08200632 -0.061757851 1.1570001
-0.079774089 -0.06159772 1.154
-0.077619739 -0.06149096 1.1520001
-0.07540676 -0.061330829 1.149
-0.073268153 -0.061224073 1.1470001
-0.071136557 -0.061117325 1.1450001
-0.069193088 -0.061170693 1.146
-0.067128859 -0.061117325 1.1450001
-0.065068133 -0.061063942 1.1440001
-0.062955789 -0.060957186 1.1420001
-0.06090381 -0.06090381 1.141
-0.05885534 -0.060850438 1.1400001
-0.056810364 -0.060797054 1.1390001
-0.054528251 -0.060476784 1.133
-0.052359898 -0.06026328 1.1290001
-0.050339423 -0.060209896 1.128
-0.048408207 -0.06026328 1.1290001
-0.046514615 -0.060370035 1.131
-0.044574648 -0.060423411 1.1320001
-0.042668805 -0.060530167 1.1340001
-0.040827714 -0.060743671 1.138
-0.0389385 -0.06090381 1.141
-0.037006408 -0.061010562 1.143
-0.035006061 -0.061010562 1.143
-0.033005714 -0.061010562 1.143
-0.031032493 -0.061063942 1.1440001
-0.029106526 -0.061224073 1.1470001
-0.02717006 -0.061384212 1.1500001
-0.025201214 -0.06149096 1.1520001
-0.023185117 -0.06149096 1.1520001
-0.021187395 -0.061544336 1.153
-0.019169547 -0.061544336 1.153
-0.017196327 -0.061704468 1.156
-0.015186357 -0.061757851 1.1570001
-0.013195636 -0.061917983 1.1600001
-0.011175163 -0.061971355 1.161
-0.0091748172 -0.06218487 1.1650001
-0.007203347 -0.062772021 1.176
-0.095945746 -0.060868807 1.179
-0.093404628 -0.060559046 1.1730001
-0.091273896 -0.060507413 1.1720001
-0.088918291 -0.060300905 1.1680001
-0.08665105 -0.060146026 1.1650001
-0.084249057 -0.059887886 1.1600001
-0.082077213 -0.059784632 1.1580001
-0.079843223 -0.05962975 1.1550001
-0.07775449 -0.059578124 1.154
-0.07540676 -0.05931998 1.149
-0.073332027 -0.059268355 1.148
-0.07119868 -0.059165098 1.146
-0.069313832 -0.059268355 1.148
-0.067187488 -0.059165098 1.146
-0.064954378 -0.058958594 1.1420001
-0.062845528 -0.05885534 1.1400001
-0.060850438 -0.05885534 1.1400001
-0.05885534 -0.05885534 1.1400001
-0.056860238 -0.05885534 1.1400001
-0.054624509 -0.0585972 1.1350001
-0.052591786 -0.058545571 1.1340001
-0.05060719 -0.058545571 1.1340001
-0.048751224 -0.058700457 1.1370001
-0.046802502 -0.058752075 1.138
-0.044771533 -0.058700457 1.1370001
-0.042744059 -0.058648825 1.136
-0.040827714 -0.058752075 1.138
-0.038972627 -0.058958594 1.1420001
-0.037071165 -0.059113476 1.1450001
-0.035036687 -0.059061844 1.1440001
-0.033005714 -0.059010219 1.143
-0.031032493 -0.059061844 1.1440001
-0.029081151 -0.059165098 1.146
-0.02717006 -0.059371613 1.1500001
-0.025201214 -0.059474863 1.1520001
-0.023205241 -0.059526492 1.153
-0.021205772 -0.059578124 1.154
-0.0192028 -0.05962975 1.1550001
-0.017196327 -0.059681375 1.156
-0.015199482 -0.059784632 1.1580001
-0.013207011 -0.059939511 1.161
-0.01120404 -0.060094394 1.164
-0.0091905678 -0.06024928 1.1670001
-0.095945746 -0.058805458 1.179
-0.093404628 -0.058506198 1.1730001
-0.091196015 -0.058406439 1.171
-0.088918291 -0.058256809 1.1680001
-0.08657667 -0.058057293 1.164
-0.084176429 -0.057807911 1.159
-0.082077213 -0.057758033 1.1580001
-0.079843223 -0.057608403 1.1550001
-0.077687114 -0.057508644 1.153
-0.075275503 -0.057209384 1.1470001
-0.073140398 -0.057109628 1.1450001
-0.071012296 -0.057009868 1.143
-0.069072329 -0.057059746 1.1440001
-0.067011602 -0.057009868 1.143
-0.0648975 -0.056910116 1.141
-0.062735267 -0.056760479 1.138
-0.060743671 -0.056760479 1.138
-0.058752075 -0.056760479 1.138
-0.056710608 -0.056710608 1.1370001
-0.054624509 -0.056610856 1.1350001
-0.052591786 -0.056560971 1.1340001
-0.05060719 -0.056560971 1.1340001
-0.048751224 -0.056710608 1.1370001
-0.046843629 -0.056810364 1.1390001
-0.044850286 -0.056810364 1.1390001
-0.042819314 -0.056760479 1.138
-0.040899474 -0.056860238 1.1400001
-0.039006751 -0.057009868 1.143
-0.037038784 -0.057059746 1.1440001
-0.035067316 -0.057109628 1.1450001
-0.033034593 -0.057059746 1.1440001
-0.031005366 -0.057009868 1.143
-0.029030399 -0.057059746 1.1440001
-0.027099181 -0.057209384 1.1470001
-0.025135584 -0.057309136 1.149
-0.023164989 -0.057408892 1.151
-0.02116902 -0.057458766 1.1520001
-0.019169547 -0.057508644 1.153
-0.017181454 -0.057608403 1.1550001
-0.015199482 -0.057758033 1.1580001
-0.013207011 -0.057907663 1.161
-0.01120404 -0.058057293 1.164
-0.0092141945 -0.058356561 1.1700001
-0.095782988 -0.056645852 1.177
-0.093324997 -0.056405213 1.1720001
-0.091040254 -0.056260832 1.169
-0.088689893 -0.056068327 1.1650001
-0.086279154 -0.055827688 1.1600001
-0.084031172 -0.055683307 1.1570001
-0.081935443 -0.05563518 1.156
-0.079843223 -0.055587053 1.1550001
-0.077687114 -0.055490796 1.153
-0.075275503 -0.055202033 1.1470001
-0.073140398 -0.055105783 1.1450001
-0.071012296 -0.055009525 1.143
-0.069072329 -0.055057652 1.1440001
-0.066952981 -0.054961398 1.1420001
-0.064783745 -0.054817017 1.1390001
-0.062680148 -0.054720763 1.1370001
-0.060583547 -0.054624509 1.1350001
-0.058648825 -0.054672632 1.136
-0.056560971 -0.054576378 1.1340001
-0.054528251 -0.054528251 1.133
-0.052545402 -0.054528251 1.133
-0.050562561 -0.054528251 1.133
-0.048579715 -0.054528251 1.133
-0.046637997 -0.054576378 1.1340001
-0.044732153 -0.054672632 1.136
-0.042856939 -0.054817017 1.1390001
-0.040935345 -0.054913267 1.141
-0.039006751 -0.055009525 1.143
-0.036974031 -0.054961398 1.1420001
-0.035036687 -0.055057652 1.1440001
-0.032947961 -0.054913267 1.141
-0.030951116 -0.054913267 1.141
-0.028979648 -0.054961398 1.1420001
-0.027051929 -0.055105783 1.1450001
-0.025113709 -0.055250157 1.148
-0.023144865 -0.055346418 1.1500001
-0.02116902 -0.055442672 1.1520001
-0.019152923 -0.055442672 1.1520001
-0.017181454 -0.055587053 1.1550001
-0.015199482 -0.055731438 1.1580001
-0.013218387 -0.055923946 1.1620001
-0.011213665 -0.056068327 1.1650001
-0.0092220688 -0.056357086 1.171
-0.098175354 -0.054771516 1.1810001
-0.095701605 -0.054539625 1.176
-0.093404628 -0.0544005 1.1730001
-0.091118142 -0.054261364 1.1700001
-0.088918291 -0.054168612 1.1680001
-0.086502299 -0.053936727 1.1630001
-0.0841038 -0.053704839 1.1580001
-0.081935443 -0.053612083 1.156
-0.079843223 -0.053565707 1.1550001
-0.077619739 -0.053426575 1.1520001
-0.075275503 -0.05319469 1.1470001
-0.073076516 -0.053055558 1.1440001
-0.070950173 -0.052962802 1.1420001
-0.068891197 -0.052916426 1.141
-0.066835724 -0.05287005 1.1400001
-0.064726867 -0.05277729 1.138
-0.062625013 -0.052684534 1.136
-0.060476784 -0.052545402 1.133
-0.058493938 -0.052545402 1.133
-0.056411341 -0.05245265 1.131
-0.054431997 -0.05245265 1.131
-0.05245265 -0.05245265 1.131
-0.050473306 -0.05245265 1.131
-0.048493963 -0.05245265 1.131
-0.046555743 -0.052499034 1.1320001
-0.044692781 -0.052638166 1.1350001
-0.042819314 -0.05277729 1.138
-0.040899474 -0.05287005 1.1400001
-0.038972627 -0.052962802 1.1420001
-0.036974031 -0.052962802 1.1420001
-0.034975436 -0.052962802 1.1420001
-0.032890208 -0.05282367 1.1390001
-0.030896863 -0.05282367 1.1390001
-0.028954269 -0.052916426 1.141
-0.027075553 -0.053148311 1.146
-0.025113709 -0.053241063 1.148
-0.023144865 -0.053333819 1.1500001
-0.02116902 -0.053426575 1.1520001
-0.019186174 -0.053519327 1.154
-0.017196327 -0.053612083 1.156
-0.015225734 -0.053797591 1.1600001
-0.013229763 -0.053936727 1.1630001
-0.011232916 -0.054122232 1.1670001
-0.0092456946 -0.054446869 1.174
-0.097925976 -0.052570783 1.1780001
-0.095620237 -0.052436899 1.1750001
-0.093324997 -0.05230302 1.1720001
-0.091118142 -0.052213769 1.1700001
-0.088842154 -0.052079882 1.1670001
-0.086353526 -0.05181212 1.161
-0.084031172 -0.051633611 1.1570001
-0.081722803 -0.051455103 1.153
-0.079635836 -0.051410478 1.1520001
-0.077484988 -0.051321223 1.1500001
-0.075209871 -0.051142715 1.146
-0.073012643 -0.051008828 1.143
-0.07082592 -0.050874956 1.1400001
-0.068770438 -0.050830327 1.1390001
-0.066601202 -0.05069644 1.136
-0.064499363 -0.05060719 1.1340001
-0.062459629 -0.050562561 1.133
-0.060370035 -0.050473306 1.131
-0.058339056 -0.050428677 1.13
-0.056261707 -0.050339423 1.128
-0.054287612 -0.050339423 1.128
-0.052313518 -0.050339423 1.128
-0.050384052 -0.050384052 1.1290001
-0.048451081 -0.050428677 1.13
-0.046514615 -0.050473306 1.131
-0.044614021 -0.050562561 1.133
-0.042744059 -0.05069644 1.136
-0.040791843 -0.050741069 1.1370001
-0.038904376 -0.050874956 1.1400001
-0.036876902 -0.050830327 1.1390001
-0.034883555 -0.050830327 1.1390001
-0.032832459 -0.050741069 1.1370001
-0.030896863 -0.050830327 1.1390001
-0.028979648 -0.050964206 1.1420001
-0.027099181 -0.051187344 1.1470001
-0.025113709 -0.051231965 1.148
-0.023144865 -0.051321223 1.1500001
-0.02116902 -0.051410478 1.1520001
-0.0192028 -0.051544361 1.1550001
-0.017211204 -0.051633611 1.1570001
-0.015212608 -0.051722866 1.159
-0.013241137 -0.051946003 1.164
-0.011232916 -0.052079882 1.1670001
-0.097925976 -0.050509185 1.1780001
-0.095782988 -0.050466307 1.177
-0.093484245 -0.050337672 1.174
-0.091273896 -0.05025192 1.1720001
-0.088994414 -0.050123289 1.169
-0.08657667 -0.049908906 1.164
-0.084176429 -0.049694516 1.159
-0.081864573 -0.049523011 1.1550001
-0.079774089 -0.049480133 1.154
-0.077552356 -0.049351502 1.151
-0.075341128 -0.049222868 1.148
-0.073140398 -0.049094241 1.1450001
-0.070950173 -0.048965611 1.1420001
-0.068951569 -0.048965611 1.1420001
-0.066777095 -0.04883698 1.1390001
-0.064613111 -0.048708346 1.136
-0.062459629 -0.048579715 1.133
-0.060423411 -0.048536841 1.1320001
-0.058339056 -0.048451081 1.13
-0.056361459 -0.048451081 1.13
-0.054335743 -0.048408207 1.1290001
-0.052359898 -0.048408207 1.1290001
-0.050384052 -0.048408207 1.1290001
-0.048493963 -0.048493963 1.131
-0.046596866 -0.048579715 1.133
-0.044692781 -0.048665471 1.1350001
-0.042744059 -0.048708346 1.136
-0.040827714 -0.048794098 1.138
-0.038904376 -0.048879854 1.1400001
-0.036941655 -0.048922729 1.141
-0.034975436 -0.048965611 1.1420001
-0.032947961 -0.048922729 1.141
-0.031005366 -0.049008485 1.143
-0.029106526 -0.049179994 1.1470001
-0.027217312 -0.04939438 1.1520001
-0.025179338 -0.049351502 1.151
-0.023205241 -0.049437255 1.153
-0.021205772 -0.049480133 1.154
-0.019236052 -0.049608767 1.1570001
-0.017270707 -0.049780272 1.161
-0.015265111 -0.049866032 1.1630001
-0.013275264 -0.050037537 1.1670001
-0.011290669 -0.050294802 1.1730001
-0.097842835 -0.048406456 1.177
-0.095620237 -0.048324201 1.1750001
-0.093404628 -0.048241951 1.1730001
-0.091118142 -0.048118569 1.1700001
-0.088689893 -0.047912937 1.1650001
-0.086279154 -0.047707301 1.1600001
-0.083958536 -0.047542788 1.156
-0.081722803 -0.047419406 1.153
-0.079497583 -0.047296029 1.1500001
-0.077350229 -0.047213774 1.148
-0.075144246 -0.047090396 1.1450001
-0.073012643 -0.047008138 1.143
-0.070888035 -0.046925887 1.141
-0.068891197 -0.046925887 1.141
-0.066718459 -0.046802502 1.138
-0.064556241 -0.046679124 1.1350001
-0.06251476 -0.046637997 1.1340001
-0.060423411 -0.046555743 1.1320001
-0.058339056 -0.046473488 1.13
-0.056311589 -0.046432361 1.1290001
-0.054287612 -0.046391234 1.128
-0.052313518 -0.046391234 1.128
-0.050339423 -0.046391234 1.128
-0.048408207 -0.046432361 1.1290001
-0.046514615 -0.046514615 1.131
-0.044574648 -0.046555743 1.1320001
-0.042631179 -0.046596866 1.133
-0.040720087 -0.046679124 1.1350001
-0.038801994 -0.046761379 1.1370001
-0.036909278 -0.04688476 1.1400001
-0.035006061 -0.047008138 1.143
-0.033034593 -0.047049265 1.1440001
-0.031113874 -0.047172651 1.1470001
-0.029157281 -0.047254901 1.149
-0.027217312 -0.047378283 1.1520001
-0.025223089 -0.047419406 1.153
-0.023205241 -0.047419406 1.153
-0.021205772 -0.047460537 1.154
-0.019236052 -0.047583915 1.1570001
-0.017270707 -0.047748424 1.161
-0.015265111 -0.047830679 1.1630001
-0.013275264 -0.047995187 1.1670001
-0.098175354 -0.046504118 1.1810001
-0.095782988 -0.046346609 1.177
-0.093404628 -0.0461891 1.1730001
-0.091118142 -0.046070967 1.1700001
-0.088689893 -0.045874085 1.1650001
-0.086279154 -0.045677204 1.1600001
-0.084031172 -0.045559071 1.1570001
-0.081793696 -0.045440938 1.154
-0.079566702 -0.045322809 1.151
-0.077417605 -0.045244053 1.149
-0.075209871 -0.04512592 1.146
-0.073076516 -0.045047171 1.1440001
-0.071012296 -0.045007791 1.143
-0.069011942 -0.045007791 1.143
-0.066952981 -0.044968415 1.1420001
-0.064840622 -0.044889662 1.1400001
-0.062735267 -0.044810906 1.138
-0.060636923 -0.044732153 1.136
-0.0585972 -0.044692781 1.1350001
-0.056461219 -0.044574648 1.1320001
-0.054480128 -0.044574648 1.1320001
-0.05245265 -0.044535268 1.131
-0.050473306 -0.044535268 1.131
-0.048536841 -0.044574648 1.1320001
-0.046596866 -0.044614021 1.133
-0.044692781 -0.044692781 1.1350001
-0.042744059 -0.044732153 1.136
-0.040827714 -0.044810906 1.138
-0.038870245 -0.044850286 1.1390001
-0.036974031 -0.044968415 1.1420001
-0.035036687 -0.045047171 1.1440001
-0.033121221 -0.0451653 1.1470001
-0.031195253 -0.045283433 1.1500001
-0.029258784 -0.045401558 1.153
-0.027311815 -0.045519691 1.156
-0.025310595 -0.045559071 1.1570001
-0.023285747 -0.045559071 1.1570001
-0.021279277 -0.045598447 1.1580001
-0.019285928 -0.045677204 1.1600001
-0.017315334 -0.045834705 1.164
-0.01533074 -0.045992218 1.1680001
-0.013343519 -0.0461891 1.1730001
-0.098175354 -0.044437267 1.1810001
-0.095701605 -0.044249129 1.176
-0.093324997 -0.044098627 1.1720001
-0.090962388 -0.043948118 1.1680001
-0.088613771 -0.043797608 1.164
-0.086353526 -0.043684728 1.161
-0.084031172 -0.043534223 1.1570001
-0.081651933 -0.043346088 1.1520001
-0.079359323 -0.043195579 1.148
-0.07721547 -0.043120325 1.146
-0.075144246 -0.043082703 1.1450001
-0.072948761 -0.042969819 1.1420001
-0.070763782 -0.042856939 1.1390001
-0.068649679 -0.042781685 1.1370001
-0.066601202 -0.042744059 1.136
-0.064669997 -0.042781685 1.1370001
-0.062625013 -0.042744059 1.136
-0.060530167 -0.042668805 1.1340001
-0.058493938 -0.042631179 1.133
-0.056411341 -0.042555925 1.131
-0.054431997 -0.042555925 1.131
-0.052499034 -0.042593554 1.1320001
-0.05060719 -0.042668805 1.1340001
-0.048665471 -0.042706434 1.1350001
-0.046637997 -0.042668805 1.1340001
-0.044653401 -0.042668805 1.1340001
-0.042668805 -0.042668805 1.1340001
-0.040791843 -0.042781685 1.1370001
-0.038836118 -0.042819314 1.138
-0.036909278 -0.042894568 1.1400001
-0.034975436 -0.042969819 1.1420001
-0.033063468 -0.043082703 1.1450001
-0.031195253 -0.043270838 1.1500001
-0.029258784 -0.04338371 1.153
-0.027288191 -0.043458972 1.1550001
-0.025288716 -0.043496594 1.156
-0.023285747 -0.043534223 1.1570001
-0.02129765 -0.043609474 1.159
-0.019285928 -0.043647103 1.1600001
-0.017300459 -0.043759983 1.1630001
-0.015317613 -0.043910492 1.1670001
-0.09825848 -0.042406291 1.182
-0.095945746 -0.04229866 1.179
-0.093484245 -0.04211928 1.174
-0.091118142 -0.04197577 1.1700001
-0.088766024 -0.041832265 1.166
-0.086427912 -0.041688759 1.1620001
-0.0841038 -0.041545253 1.1580001
-0.081722803 -0.041365866 1.153
-0.079497583 -0.041258242 1.1500001
-0.077350229 -0.041186482 1.148
-0.075275503 -0.041150611 1.1470001
-0.073012643 -0.041007098 1.143
-0.070763782 -0.040863592 1.1390001
-0.068649679 -0.040791843 1.1370001
-0.066601202 -0.040755961 1.136
-0.064613111 -0.040755961 1.136
