# .PCD v0.7 - Point Cloud Data file format
VERSION 0.7
FIELDS x y z
SIZE 4 4 4
TYPE F F F
COUNT 1 1 1
WIDTH 1432
HEIGHT 1
VIEWPOINT 0 0 0 1 0 0 0
POINTS 1432
DATA ascii
-0.0913544 -0.11865572 1.2
-0.089105546 -0.11845796 1.1980001
-0.087008946 -0.11845796 1.1980001
-0.0850541 -0.11865572 1.2
-0.082884863 -0.11855683 1.199
-0.080786511 -0.11855683 1.199
-0.07855691 -0.11835907 1.197
-0.076525934 -0.11845796 1.1980001
-0.074429341 -0.11845796 1.1980001
-0.072453491 -0.11865572 1.2
-0.070412017 -0.1187546 1.2010001
-0.068310164 -0.1187546 1.2010001
-0.066153191 -0.11865572 1.2
-0.064053088 -0.11865572 1.2
-0.062004618 -0.1187546 1.2010001
-0.060052395 -0.11905125 1.2040001
-0.057993416 -0.11915012 1.205
-0.055977318 -0.11934788 1.207
-0.05399885 -0.11964452 1.21
-0.052009881 -0.11994115 1.2130001
-0.049928159 -0.12004003 1.2140001
-0.047842931 -0.12013891 1.215
-0.045942336 -0.12073219 1.2210001
-0.043877237 -0.12092995 1.223
-0.041839264 -0.12122659 1.2260001
-0.039693665 -0.12122659 1.2260001
-0.037854325 -0.12221538 1.2360001
-0.035604592 -0.12191875 1.233
-0.12152324 -0.11937238 1.2290001
-0.1187896 -0.1187896 1.223
-0.11674463 -0.11888673 1.2240001
-0.11525793 -0.11956663 1.2310001
-0.11273605 -0.11917812 1.2270001
-0.11013805 -0.11869246 1.222
-0.10764594 -0.11830395 1.2180001
-0.10499455 -0.11772116 1.212
-0.10278858 -0.11762404 1.2110001
-0.10041984 -0.11733266 1.2080001
-0.098142974 -0.1171384 1.2060001
-0.095873125 -0.11694414 1.2040001
-0.093610257 -0.11674987 1.202
-0.09143053 -0.11665274 1.2010001
-0.089254305 -0.11655562 1.2
-0.087154202 -0.11655562 1.2
-0.084983215 -0.11645848 1.199
-0.082815744 -0.11636136 1.1980001
-0.080651753 -0.11626422 1.197
-0.078491278 -0.1161671 1.1960001
-0.076398179 -0.1161671 1.1960001
-0.074367203 -0.11626422 1.197
-0.072332732 -0.11636136 1.1980001
-0.070353389 -0.11655562 1.2
-0.068253286 -0.11655562 1.2
-0.066153191 -0.11655562 1.2
-0.064053088 -0.11655562 1.2
-0.062004618 -0.11665274 1.2010001
-0.059952635 -0.11674987 1.202
-0.057897162 -0.116847 1.2030001
-0.055930946 -0.1171384 1.2060001
-0.053954225 -0.11742978 1.2090001
-0.051967002 -0.11772116 1.212
-0.049969282 -0.11801256 1.215
-0.04792168 -0.11820682 1.217
-0.045942336 -0.11859534 1.2210001
-0.043841362 -0.11869246 1.222
-0.041771013 -0.11888673 1.2240001
-0.039564155 -0.11869246 1.222
-0.037517432 -0.11898386 1.225
-0.035402458 -0.11908099 1.2260001
-0.12347282 -0.11703077 1.2270001
-0.12043555 -0.11617235 1.2180001
-0.11820682 -0.11607696 1.217
-0.11674463 -0.11674463 1.2240001
-0.11507067 -0.11722153 1.2290001
-0.11246042 -0.11674463 1.2240001
-0.10986767 -0.11626773 1.2190001
-0.10720404 -0.11569545 1.2130001
-0.10456141 -0.11512317 1.207
-0.10236418 -0.11502779 1.2060001
-0.10008733 -0.11483704 1.2040001
-0.097898841 -0.11474166 1.2030001
-0.095634237 -0.1145509 1.2010001
-0.093376614 -0.11436012 1.199
-0.09127827 -0.11436012 1.199
-0.08903116 -0.11416937 1.197
-0.086863682 -0.114074 1.1960001
-0.08462882 -0.11388323 1.194
-0.082539223 -0.11388323 1.194
-0.08038225 -0.11378785 1.1930001
-0.078294396 -0.11378785 1.1930001
-0.076270424 -0.11388323 1.194
-0.074180819 -0.11388323 1.194
-0.072211981 -0.114074 1.1960001
-0.07017751 -0.11416937 1.197
-0.068139531 -0.11426475 1.1980001
-0.065987803 -0.11416937 1.197
-0.063892946 -0.11416937 1.197
-0.061849732 -0.11426475 1.1980001
-0.059902765 -0.1145509 1.2010001
-0.057800915 -0.1145509 1.2010001
-0.055791814 -0.11474166 1.2030001
-0.053775713 -0.11493241 1.205
-0.051752616 -0.11512317 1.207
-0.049804773 -0.11550469 1.2110001
-0.047764175 -0.11569545 1.2130001
-0.045829456 -0.11617235 1.2180001
-0.043841362 -0.11655386 1.222
-0.041771013 -0.11674463 1.2240001
-0.039564155 -0.11655386 1.222
-0.037425552 -0.11655386 1.222
-0.035460208 -0.11712614 1.228
-0.033446733 -0.11760303 1.233
-0.12377471 -0.11516429 1.23
-0.12083106 -0.11441525 1.222
-0.11888673 -0.11460253 1.2240001
-0.11722153 -0.11507067 1.2290001
-0.11488342 -0.11488342 1.2270001
-0.11246042 -0.11460253 1.2240001
-0.10995779 -0.114228 1.22
-0.10738079 -0.11375985 1.215
-0.10482129 -0.1132917 1.21
-0.10253394 -0.11310446 1.2080001
-0.10017045 -0.11282355 1.205
-0.097898841 -0.11263631 1.2030001
-0.095634237 -0.11244904 1.2010001
-0.093532383 -0.11244904 1.2010001
-0.0913544 -0.11235542 1.2
-0.089179918 -0.11226178 1.199
-0.08693631 -0.11207452 1.197
-0.084699705 -0.11188726 1.1950001
-0.082539223 -0.11179363 1.194
-0.080449626 -0.11179363 1.194
-0.078491278 -0.11198089 1.1960001
-0.076398179 -0.11198089 1.1960001
-0.07430508 -0.11198089 1.1960001
-0.072211981 -0.11198089 1.1960001
-0.07017751 -0.11207452 1.197
-0.068139531 -0.11216816 1.1980001
-0.065987803 -0.11207452 1.197
-0.063999705 -0.11226178 1.199
-0.061952986 -0.11235542 1.2
-0.060002517 -0.11263631 1.2030001
-0.057897162 -0.11263631 1.2030001
-0.055884566 -0.11282355 1.205
-0.053820346 -0.11291719 1.2060001
-0.051795494 -0.11310446 1.2080001
-0.0498459 -0.11347897 1.212
-0.047842931 -0.11375985 1.215
-0.045867085 -0.11413438 1.2190001
-0.043841362 -0.11441525 1.222
-0.041668635 -0.11432163 1.2210001
-0.039499402 -0.114228 1.22
-0.037425552 -0.11441525 1.222
-0.035489086 -0.11507067 1.2290001
-0.12437849 -0.11356296 1.2360001
-0.12152324 -0.11291982 1.2290001
-0.11859534 -0.11218478 1.2210001
-0.11674463 -0.11246042 1.2240001
-0.11450889 -0.11236854 1.223
-0.11218478 -0.11218478 1.2210001
-0.1096874 -0.11181726 1.217
-0.10720404 -0.11144974 1.2130001
-0.10482129 -0.11117411 1.21
-0.10244906 -0.11089846 1.207
-0.10000419 -0.11053095 1.2030001
-0.097654708 -0.11025532 1.2
-0.095315717 -0.10997967 1.197
-0.093298748 -0.11007155 1.1980001
-0.09112601 -0.10997967 1.197
-0.088956788 -0.10988779 1.1960001
-0.086645797 -0.10961216 1.1930001
-0.084416196 -0.1094284 1.1910001
-0.082400963 -0.10952027 1.192
-0.08038225 -0.10961216 1.1930001
-0.078360021 -0.10970403 1.194
-0.076270424 -0.10970403 1.194
-0.074180819 -0.10970403 1.194
-0.072091222 -0.10970403 1.194
-0.069942996 -0.10961216 1.1930001
-0.06791202 -0.10970403 1.194
-0.065767296 -0.10961216 1.1930001
-0.063732818 -0.10970403 1.194
-0.061798099 -0.10997967 1.197
-0.059852883 -0.11025532 1.2
-0.057800915 -0.1103472 1.2010001
-0.055745434 -0.11043906 1.202
-0.053641833 -0.11043906 1.202
-0.051666863 -0.1107147 1.205
-0.049640264 -0.11089846 1.207
-0.047646042 -0.11117411 1.21
-0.045641325 -0.11144974 1.2130001
-0.043661974 -0.11181726 1.217
-0.041634504 -0.1120929 1.22
-0.039402269 -0.11181726 1.217
-0.037333675 -0.11200102 1.2190001
-0.035315827 -0.11236854 1.223
-0.033392485 -0.11310358 1.2310001
-0.031314261 -0.11337921 1.2340001
-0.12715589 -0.11194064 1.2420001
-0.12478101 -0.11176038 1.24
-0.12201764 -0.11121961 1.2340001
-0.11898386 -0.11040844 1.225
-0.11674463 -0.11031832 1.2240001
-0.11441525 -0.11013805 1.222
-0.1120929 -0.10995779 1.22
-0.10959728 -0.10959728 1.2160001
-0.10729243 -0.10941702 1.2140001
-0.10490793 -0.10914663 1.2110001
-0.10261882 -0.10896637 1.2090001
-0.10000419 -0.10842559 1.2030001
-0.097654708 -0.10815521 1.2
-0.095236085 -0.10779469 1.1960001
-0.093220867 -0.10788482 1.197
-0.091049887 -0.10779469 1.1960001
-0.088956788 -0.10779469 1.1960001
-0.086718418 -0.10761443 1.194
-0.08455795 -0.10752431 1.1930001
-0.082470104 -0.10752431 1.1930001
-0.080449626 -0.10761443 1.194
-0.078360021 -0.10761443 1.194
-0.076270424 -0.10761443 1.194
-0.074180819 -0.10761443 1.194
-0.07203085 -0.10752431 1.1930001
-0.069942996 -0.10752431 1.1930001
-0.067855142 -0.10752431 1.1930001
-0.065767296 -0.10752431 1.1930001
-0.063732818 -0.10761443 1.194
-0.061798099 -0.10788482 1.197
-0.059803005 -0.10806508 1.199
-0.057752781 -0.10815521 1.2
-0.055699058 -0.10824534 1.2010001
-0.053731091 -0.10851573 1.2040001
-0.051752616 -0.10878611 1.207
-0.049722522 -0.10896637 1.2090001
-0.047685422 -0.10914663 1.2110001
-0.045641325 -0.10932689 1.2130001
-0.043554351 -0.10941702 1.2140001
-0.04160038 -0.10986767 1.2190001
-0.0393699 -0.10959728 1.2160001
-0.037303045 -0.10977753 1.2180001
-0.035200324 -0.10986767 1.2190001
-0.033365358 -0.11085909 1.23
-0.031009743 -0.11013805 1.222
-0.029131027 -0.11112947 1.233
-0.12725826 -0.10985541 1.243
-0.12457976 -0.10941352 1.238
-0.12162211 -0.10870648 1.23
-0.11898386 -0.10826459 1.225
-0.11645848 -0.10791107 1.2210001
-0.114228 -0.10782269 1.22
-0.11190914 -0.10764594 1.2180001
-0.10950715 -0.10738079 1.215
-0.1069389 -0.1069389 1.21
-0.10456141 -0.10667376 1.207
-0.10219443 -0.10640863 1.2040001
-0.099671669 -0.10596672 1.199
-0.097329192 -0.1057016 1.1960001
-0.094917566 -0.10534807 1.192
-0.09283147 -0.10534807 1.192
-0.090669252 -0.10525969 1.1910001
-0.088659264 -0.10534807 1.192
-0.086500548 -0.10525969 1.1910001
-0.084416196 -0.10525969 1.1910001
-0.082331844 -0.10525969 1.1910001
-0.080247492 -0.10525969 1.1910001
-0.078031883 -0.10508294 1.189
-0.076014914 -0.10517132 1.1900001
-0.073932312 -0.10517132 1.1900001
-0.071789332 -0.10508294 1.189
-0.069708481 -0.10508294 1.189
-0.067684516 -0.10517132 1.1900001
-0.065601908 -0.10517132 1.1900001
-0.063519314 -0.10517132 1.1900001
-0.061488338 -0.10525969 1.1910001
-0.059503745 -0.10543646 1.1930001
-0.057512149 -0.10561322 1.1950001
-0.05551355 -0.10578997 1.197
-0.05350795 -0.10596672 1.199
-0.051581111 -0.10632025 1.2030001
-0.049640264 -0.10667376 1.207
-0.047606673 -0.10685053 1.2090001
-0.045566071 -0.10702728 1.2110001
-0.043482594 -0.10711566 1.212
-0.04160038 -0.10773432 1.2190001
-0.03933752 -0.10738079 1.215
-0.037241794 -0.10746918 1.2160001
-0.035084814 -0.10738079 1.215
-0.033229727 -0.10826459 1.225
-0.031009743 -0.10799944 1.222
-0.029083777 -0.10879487 1.2310001
-0.12974599 -0.10793995 1.2460001
-0.12695111 -0.10742017 1.24
-0.12417723 -0.1069004 1.2340001
-0.12181988 -0.10672715 1.2320001
-0.11976089 -0.10681377 1.233
-0.11703077 -0.10629401 1.2270001
-0.11441525 -0.10586084 1.222
-0.11190914 -0.10551433 1.2180001
-0.10950715 -0.10525444 1.215
-0.10702728 -0.10490793 1.2110001
-0.10447479 -0.10447479 1.2060001
-0.10193979 -0.10404164 1.2010001
-0.099505417 -0.10369512 1.197
-0.097166426 -0.10343523 1.194
-0.094917566 -0.10326197 1.192
-0.09283147 -0.10326197 1.192
-0.090745367 -0.10326197 1.192
-0.088584892 -0.10317535 1.1910001
-0.086500548 -0.10317535 1.1910001
-0.084487066 -0.10326197 1.192
-0.082400963 -0.10326197 1.192
-0.080247492 -0.10317535 1.1910001
-0.078031883 -0.10300208 1.189
-0.075951025 -0.10300208 1.189
-0.073808059 -0.10291546 1.1880001
-0.07172896 -0.10291546 1.1880001
-0.06964986 -0.10291546 1.1880001
-0.067627631 -0.10300208 1.189
-0.065546781 -0.10300208 1.189
-0.063465931 -0.10300208 1.189
-0.061436713 -0.10308871 1.1900001
-0.059403993 -0.10317535 1.1910001
-0.057464015 -0.10343523 1.194
-0.05551355 -0.10369512 1.197
-0.053597208 -0.10404164 1.2010001
-0.051581111 -0.1042149 1.2030001
-0.049640264 -0.10456141 1.207
-0.047646042 -0.10482129 1.21
-0.045603696 -0.10499455 1.212
-0.043554351 -0.10516782 1.2140001
-0.041668635 -0.10577422 1.2210001
-0.039434649 -0.10551433 1.2180001
-0.037333675 -0.10560096 1.2190001
-0.035142567 -0.1054277 1.217
-0.033283979 -0.10629401 1.2270001
-0.031161999 -0.10638063 1.228
-0.1270535 -0.10533495 1.2410001
-0.12397597 -0.10457104 1.2320001
-0.12162211 -0.10440128 1.23
-0.1194695 -0.10440128 1.23
-0.11703077 -0.10414664 1.2270001
-0.11441525 -0.10372224 1.222
-0.11181726 -0.10329785 1.217
-0.10932689 -0.10295833 1.2130001
-0.10676214 -0.10253394 1.2080001
-0.10438816 -0.1022793 1.205
-0.10185491 -0.10185491 1.2
-0.099422291 -0.10151539 1.1960001
-0.097003669 -0.10117587 1.192
-0.094758317 -0.10100612 1.1900001
-0.092675716 -0.10100612 1.1900001
-0.090516984 -0.10092123 1.189
-0.088361755 -0.10083636 1.1880001
-0.086210027 -0.10075147 1.187
-0.084203556 -0.10083636 1.1880001
-0.082193583 -0.10092123 1.189
-0.079977974 -0.10075147 1.187
-0.077638119 -0.10041197 1.1830001
-0.075376131 -0.10015733 1.1800001
-0.073311031 -0.10015733 1.1800001
-0.071306311 -0.10024221 1.1810001
-0.069356717 -0.10041197 1.1830001
-0.06740012 -0.10058172 1.1850001
-0.065381408 -0.1006666 1.1860001
-0.063305803 -0.1006666 1.1860001
-0.06128183 -0.10075147 1.187
-0.059354108 -0.10100612 1.1900001
-0.057367764 -0.10117587 1.192
-0.055374417 -0.10134563 1.194
-0.053329445 -0.10143051 1.1950001
-0.051366724 -0.10168515 1.1980001
-0.049434628 -0.10202466 1.202
-0.04748854 -0.10236418 1.2060001
-0.045453191 -0.10253394 1.2080001
-0.043410841 -0.1027037 1.21
-0.041532125 -0.10329785 1.217
-0.039467029 -0.10346761 1.2190001
-0.03739493 -0.10363737 1.2210001
-0.035200324 -0.10346761 1.2190001
-0.033175472 -0.10380712 1.223
-0.031187378 -0.10431641 1.2290001
-0.12985013 -0.10366187 1.2470001
-0.12695111 -0.10307996 1.24
-0.1240766 -0.10249806 1.233
-0.12181988 -0.10241494 1.2320001
-0.11966377 -0.10241494 1.2320001
-0.11722153 -0.10216554 1.2290001
-0.11441525 -0.10158364 1.222
-0.1116335 -0.10100174 1.215
-0.10923675 -0.10075235 1.212
-0.10676214 -0.10041984 1.2080001
-0.10438816 -0.10017045 1.205
-0.10185491 -0.09975481 1.2
-0.099422291 -0.099422291 1.1960001
-0.097166426 -0.099256024 1.194
-0.094997197 -0.099172905 1.1930001
-0.092753597 -0.099006653 1.1910001
-0.090593114 -0.098923512 1.1900001
-0.088436134 -0.098840386 1.189
-0.086282656 -0.09875726 1.1880001
-0.084203556 -0.09875726 1.1880001
-0.082124457 -0.09875726 1.1880001
-0.079910599 -0.098591007 1.1860001
-0.077506863 -0.098175354 1.1810001
-0.075312249 -0.098009095 1.179
-0.0732489 -0.098009095 1.179
-0.071306311 -0.098175354 1.1810001
-0.069473974 -0.098507866 1.1850001
-0.067456998 -0.098591007 1.1860001
-0.065381408 -0.098591007 1.1860001
-0.063199043 -0.09842474 1.184
-0.06128183 -0.098674133 1.187
-0.05930423 -0.098840386 1.189
-0.057367764 -0.099089772 1.192
-0.055420794 -0.099339157 1.1950001
-0.053374074 -0.099422291 1.1960001
-0.051366724 -0.099588551 1.1980001
-0.049352378 -0.09975481 1.2
-0.047409784 -0.10008733 1.2040001
-0.045415562 -0.10033671 1.207
-0.043410841 -0.10058609 1.21
-0.041463871 -0.10100174 1.215
-0.039531779 -0.10150052 1.2210001
-0.037425552 -0.10158364 1.222
-0.035344701 -0.1017499 1.2240001
-0.033175472 -0.10166677 1.223
-0.031365011 -0.10274745 1.2360001
-0.12891296 -0.1007471 1.238
-0.12654158 -0.10058434 1.2360001
-0.12387534 -0.10017745 1.2310001
-0.12152324 -0.1000147 1.2290001
-0.11956663 -0.10017745 1.2310001
-0.11684 -0.099689178 1.225
-0.1139471 -0.099038139 1.217
-0.11080659 -0.098142974 1.2060001
-0.10851573 -0.097980224 1.2040001
-0.10614349 -0.097736083 1.2010001
-0.10404164 -0.097736083 1.2010001
-0.10151539 -0.097329192 1.1960001
-0.099256024 -0.097166426 1.194
-0.097003669 -0.097003669 1.192
-0.094837949 -0.096922293 1.1910001
-0.09244208 -0.096596777 1.187
-0.090288602 -0.096515402 1.1860001
-0.088361755 -0.09667816 1.1880001
-0.086210027 -0.096596777 1.187
-0.084132679 -0.096596777 1.187
-0.081847943 -0.096352637 1.184
-0.079708464 -0.096271262 1.1830001
-0.077375598 -0.095945746 1.179
-0.075248376 -0.09586437 1.1780001
-0.0732489 -0.095945746 1.179
-0.071245931 -0.096027128 1.1800001
-0.069298089 -0.096189879 1.182
-0.067286365 -0.096271262 1.1830001
-0.06521602 -0.096271262 1.1830001
-0.063145667 -0.096271262 1.1830001
-0.061126944 -0.096352637 1.184
-0.0591546 -0.096515402 1.1860001
-0.057127129 -0.096596777 1.187
-0.055188909 -0.096840918 1.1900001
-0.053106308 -0.096840918 1.1900001
-0.051152341 -0.097085051 1.1930001
-0.049187873 -0.097329192 1.1960001
-0.047370408 -0.097898841 1.2030001
-0.045415562 -0.098224349 1.207
-0.043410841 -0.098468497 1.21
-0.04139562 -0.098712631 1.2130001
-0.039434649 -0.099119522 1.2180001
-0.03727242 -0.099038139 1.217
-0.035200324 -0.099200912 1.2190001
-0.033066969 -0.099200912 1.2190001
-0.031314261 -0.10042159 1.2340001
-0.12870471 -0.098421238 1.2360001
-0.1264392 -0.098341607 1.235
-0.12417723 -0.098261982 1.2340001
-0.12191875 -0.09818235 1.233
-0.11985803 -0.098261982 1.2340001
-0.11684 -0.097545318 1.225
-0.11366623 -0.096669406 1.2140001
-0.11062284 -0.095873125 1.2040001
-0.10851573 -0.095873125 1.2040001
-0.10614349 -0.095634237 1.2010001
-0.10386837 -0.095474973 1.199
-0.10143051 -0.095156454 1.1950001
-0.099339157 -0.095156454 1.1950001
-0.097085051 -0.094997197 1.1930001
-0.094917566 -0.094917566 1.192
-0.092597827 -0.094678678 1.189
-0.090440862 -0.094599061 1.1880001
-0.088510513 -0.094758317 1.1900001
-0.086427912 -0.094758317 1.1900001
-0.084203556 -0.094599061 1.1880001
-0.081847943 -0.094280541 1.184
-0.07977584 -0.094280541 1.184
-0.077638119 -0.094200917 1.1830001
-0.075695522 -0.094360173 1.1850001
-0.073621668 -0.094360173 1.1850001
-0.071547821 -0.094360173 1.1850001
-0.069473974 -0.094360173 1.1850001
-0.067343242 -0.094280541 1.184
-0.065326273 -0.094360173 1.1850001
-0.063199043 -0.094280541 1.184
-0.061178569 -0.094360173 1.1850001
-0.0591546 -0.094439805 1.1860001
-0.057127129 -0.094519429 1.187
-0.055142529 -0.094678678 1.189
-0.053150937 -0.094837949 1.1910001
-0.051195215 -0.095076822 1.194
-0.049187873 -0.095236085 1.1960001
-0.047291655 -0.095634237 1.2010001
-0.045453191 -0.096191637 1.2080001
-0.043518472 -0.096589774 1.2130001
-0.041498002 -0.096828662 1.2160001
-0.039467029 -0.097067557 1.2190001
-0.037303045 -0.096987925 1.2180001
-0.035229199 -0.097147182 1.22
-0.033094093 -0.097147182 1.22
-0.13182072 -0.09695904 1.245
-0.12891296 -0.096413895 1.238
-0.1264392 -0.096180253 1.235
-0.12437849 -0.096258134 1.2360001
-0.12191875 -0.096024506 1.233
-0.11956663 -0.095868744 1.2310001
-0.11617235 -0.094856322 1.2180001
-0.11338534 -0.09431117 1.2110001
-0.1103472 -0.093532383 1.2010001
-0.10815521 -0.093454503 1.2
-0.1057016 -0.093142986 1.1960001
-0.10360849 -0.093142986 1.1960001
-0.10117587 -0.09283147 1.192
-0.099089772 -0.09283147 1.192
-0.097003669 -0.09283147 1.192
-0.094837949 -0.092753597 1.1910001
-0.092519961 -0.092519961 1.1880001
-0.090288602 -0.092364199 1.1860001
-0.088361755 -0.092519961 1.1880001
-0.086355284 -0.092597827 1.189
-0.084203556 -0.092519961 1.1880001
-0.08191707 -0.092286319 1.1850001
-0.07977584 -0.092208438 1.184
-0.077703744 -0.092208438 1.184
-0.075695522 -0.092286319 1.1850001
-0.073559545 -0.092208438 1.184
-0.071487442 -0.092208438 1.184
-0.069415346 -0.092208438 1.184
-0.067343242 -0.092208438 1.184
-0.065326273 -0.092286319 1.1850001
-0.063252419 -0.092286319 1.1850001
-0.061075319 -0.092130564 1.1830001
-0.05905484 -0.092208438 1.184
-0.056934617 -0.092130564 1.1830001
-0.055003401 -0.092364199 1.1860001
-0.052972425 -0.09244208 1.187
-0.051066589 -0.092753597 1.1910001
-0.049105614 -0.092987224 1.194
-0.047212899 -0.093376614 1.199
-0.045302682 -0.093766026 1.2040001
-0.043410841 -0.094233289 1.21
-0.041498002 -0.09470056 1.2160001
-0.039531779 -0.095089957 1.2210001
-0.037303045 -0.094856322 1.2180001
-0.035171442 -0.094856322 1.2180001
-0.033066969 -0.094934203 1.2190001
-0.1270535 -0.094475672 1.2410001
-0.12488165 -0.094475672 1.2410001
-0.12241314 -0.094247289 1.238
-0.11937238 -0.093562134 1.2290001
-0.11607696 -0.092648581 1.217
-0.1132917 -0.092115685 1.21
-0.11062284 -0.09165892 1.2040001
-0.10824534 -0.09143053 1.2010001
-0.10578997 -0.09112601 1.197
-0.10360849 -0.091049887 1.1960001
-0.10117587 -0.090745367 1.192
-0.099089772 -0.090745367 1.192
-0.097085051 -0.090821505 1.1930001
-0.094917566 -0.090745367 1.192
-0.092753597 -0.090669252 1.1910001
-0.090440862 -0.090440862 1.1880001
-0.088436134 -0.090516984 1.189
-0.086427912 -0.090593114 1.1900001
-0.084274426 -0.090516984 1.189
-0.082055323 -0.090364724 1.187
-0.079910599 -0.090288602 1.1860001
-0.077769376 -0.090212472 1.1850001
-0.075695522 -0.090212472 1.1850001
-0.073559545 -0.090136342 1.184
-0.071547821 -0.090212472 1.1850001
-0.069591224 -0.090364724 1.187
-0.067570761 -0.090440862 1.1880001
-0.065491654 -0.090440862 1.1880001
-0.063305803 -0.090288602 1.1860001
-0.061126944 -0.090136342 1.184
-0.059104726 -0.090212472 1.1850001
-0.057030872 -0.090212472 1.1850001
-0.055003401 -0.090288602 1.1860001
-0.053017057 -0.090440862 1.1880001
-0.051152341 -0.090821505 1.1930001
-0.049228996 -0.09112601 1.197
-0.047252279 -0.0913544 1.2
-0.045265056 -0.091582783 1.2030001
-0.043410841 -0.092115685 1.21
-0.041498002 -0.092572458 1.2160001
-0.039596535 -0.093105353 1.223
-0.0373643 -0.092876971 1.22
-0.035258073 -0.092953101 1.2210001
-0.033121221 -0.092953101 1.2210001
-0.12932949 -0.092378199 1.2420001
-0.12633683 -0.091783173 1.2340001
-0.12427787 -0.091857545 1.235
-0.12181988 -0.091634415 1.2320001
-0.1187896 -0.090965003 1.223
-0.11569545 -0.090221219 1.2130001
-0.11310446 -0.08984933 1.2080001
-0.11062284 -0.089551821 1.2040001
-0.10824534 -0.089328676 1.2010001
-0.10578997 -0.08903116 1.197
-0.10352186 -0.088882409 1.1950001
-0.101091 -0.088584892 1.1910001
-0.098840386 -0.088436134 1.189
-0.096840918 -0.088510513 1.1900001
-0.094678678 -0.088436134 1.189
-0.092597827 -0.088436134 1.189
-0.090364724 -0.088287376 1.187
-0.088287376 -0.088287376 1.187
-0.086355284 -0.088436134 1.189
-0.084274426 -0.088436134 1.189
-0.082055323 -0.088287376 1.187
-0.079843223 -0.088138625 1.1850001
-0.077638119 -0.087989867 1.1830001
-0.075503886 -0.08791548 1.182
-0.073435292 -0.08791548 1.182
-0.071487442 -0.088064238 1.184
-0.069473974 -0.088138625 1.1850001
-0.067456998 -0.088213004 1.1860001
-0.065326273 -0.088138625 1.1850001
-0.063199043 -0.088064238 1.184
-0.061075319 -0.087989867 1.1830001
-0.05900497 -0.087989867 1.1830001
-0.056934617 -0.087989867 1.1830001
-0.054910641 -0.088064238 1.184
-0.0529278 -0.088213004 1.1860001
-0.051023707 -0.088510513 1.1900001
-0.049146742 -0.088882409 1.1950001
-0.047212899 -0.089179918 1.199
-0.045189805 -0.089328676 1.2010001
-0.043231457 -0.089626193 1.205
-0.041327368 -0.090072468 1.2110001
-0.039434649 -0.090593114 1.2180001
-0.03727242 -0.090518728 1.217
-0.035142567 -0.090518728 1.217
-0.03298559 -0.090444356 1.2160001
-0.031136626 -0.091262527 1.2270001
-0.12870471 -0.089768827 1.2360001
-0.12623446 -0.089550942 1.233
-0.12427787 -0.089696199 1.235
-0.12172099 -0.089405678 1.2310001
-0.11859534 -0.088679403 1.2210001
-0.11560006 -0.088025734 1.212
-0.11301082 -0.087662593 1.207
-0.1107147 -0.087517343 1.205
-0.10833547 -0.087299451 1.202
-0.10614349 -0.08722683 1.2010001
-0.10369512 -0.08693631 1.197
-0.10126076 -0.086645797 1.1930001
-0.099006653 -0.086500548 1.1910001
-0.096922293 -0.086500548 1.1910001
-0.094758317 -0.086427912 1.1900001
-0.092519961 -0.086282656 1.1880001
-0.090364724 -0.086210027 1.187
-0.088287376 -0.086210027 1.187
-0.086355284 -0.086355284 1.189
-0.084203556 -0.086282656 1.1880001
-0.081986204 -0.086137407 1.1860001
-0.079843223 -0.086064771 1.1850001
-0.077703744 -0.085992143 1.184
-0.075631641 -0.085992143 1.184
-0.073559545 -0.085992143 1.184
-0.071608201 -0.086137407 1.1860001
-0.069591224 -0.086210027 1.187
-0.067627631 -0.086355284 1.189
-0.065546781 -0.086355284 1.189
-0.063412555 -0.086282656 1.1880001
-0.061230201 -0.086137407 1.1860001
-0.059104726 -0.086064771 1.1850001
-0.057078999 -0.086137407 1.1860001
-0.055003401 -0.086137407 1.1860001
-0.053017057 -0.086282656 1.1880001
-0.051066589 -0.086500548 1.1910001
-0.049146742 -0.086791053 1.1950001
-0.047173522 -0.087008946 1.1980001
-0.045152176 -0.087154202 1.2
-0.043159705 -0.087372087 1.2030001
-0.041224986 -0.087735228 1.2080001
-0.039402269 -0.088388883 1.217
-0.037303045 -0.088461511 1.2180001
-0.035113692 -0.088316262 1.2160001
-0.03298559 -0.088316262 1.2160001
-0.030984366 -0.088679403 1.2210001
-0.1303384 -0.087251328 1.2310001
-0.12797579 -0.087109581 1.2290001
-0.12582494 -0.087109581 1.2290001
-0.12367408 -0.087109581 1.2290001
-0.12102883 -0.086755179 1.2240001
-0.11801256 -0.086117268 1.215
-0.11531393 -0.085692003 1.2090001
-0.11272994 -0.085337617 1.2040001
-0.11062284 -0.085337617 1.2040001
-0.10842559 -0.085266739 1.2030001
-0.10623186 -0.085195847 1.202
-0.10378175 -0.084912345 1.1980001
-0.10126076 -0.08455795 1.1930001
-0.098923512 -0.084345318 1.1900001
-0.096759535 -0.084274426 1.189
-0.094758317 -0.084345318 1.1900001
-0.092519961 -0.084203556 1.1880001
-0.090288602 -0.084061801 1.1860001
-0.088213004 -0.084061801 1.1860001
-0.086210027 -0.084132679 1.187
-0.084061801 -0.084061801 1.1860001
-0.081847943 -0.083920039 1.184
-0.07977584 -0.083920039 1.184
-0.077703744 -0.083920039 1.184
-0.075695522 -0.083990924 1.1850001
-0.073559545 -0.083920039 1.184
-0.071547821 -0.083990924 1.1850001
-0.069532603 -0.084061801 1.1860001
-0.067570761 -0.084203556 1.1880001
-0.065601908 -0.084345318 1.1900001
-0.063465931 -0.084274426 1.189
-0.061230201 -0.084061801 1.1860001
-0.05905484 -0.083920039 1.184
-0.057078999 -0.084061801 1.1860001
-0.055003401 -0.084061801 1.1860001
-0.053061679 -0.084274426 1.189
-0.051023707 -0.084345318 1.1900001
-0.049146742 -0.084699705 1.1950001
-0.04709477 -0.084770583 1.1960001
-0.045076922 -0.084912345 1.1980001
-0.043016195 -0.084983215 1.199
-0.041088481 -0.085337617 1.2040001
-0.03924039 -0.085904635 1.212
-0.037241794 -0.08618816 1.2160001
-0.035055939 -0.086046398 1.2140001
-0.032931339 -0.086046398 1.2140001
-0.030933615 -0.086400792 1.2190001
-0.12860057 -0.085373484 1.235
-0.12674636 -0.085580871 1.238
-0.12377471 -0.085027844 1.23
-0.12102883 -0.084613077 1.2240001
-0.11801256 -0.083990917 1.215
-0.11550469 -0.083714411 1.2110001
-0.11301082 -0.083437897 1.207
-0.11080659 -0.083368771 1.2060001
-0.10860585 -0.083299637 1.205
-0.10640863 -0.083230518 1.2040001
-0.10378175 -0.082815744 1.1980001
-0.10126076 -0.082470104 1.1930001
-0.099006653 -0.082331844 1.1910001
-0.097003669 -0.082400963 1.192
-0.094997197 -0.082470104 1.1930001
-0.092675716 -0.08226271 1.1900001
-0.090516984 -0.082193583 1.189
-0.088361755 -0.082124457 1.1880001
-0.086282656 -0.082124457 1.1880001
-0.084061801 -0.081986204 1.1860001
-0.081986204 -0.081986204 1.1860001
-0.079977974 -0.082055323 1.187
-0.077966258 -0.082124457 1.1880001
-0.075887159 -0.082124457 1.1880001
-0.073808059 -0.082124457 1.1880001
-0.071668573 -0.082055323 1.187
-0.069591224 -0.082055323 1.187
-0.067627631 -0.082193583 1.189
-0.065601908 -0.08226271 1.1900001
-0.063359179 -0.082055323 1.187
-0.061126944 -0.081847943 1.184
-0.05905484 -0.081847943 1.184
-0.057078999 -0.081986204 1.1860001
-0.055142529 -0.082193583 1.189
-0.053150937 -0.082331844 1.1910001
-0.051152341 -0.082470104 1.1930001
-0.049187873 -0.082677484 1.1960001
-0.047134146 -0.08274661 1.197
-0.045114547 -0.082884863 1.199
-0.043052074 -0.082953997 1.2
-0.041088481 -0.083230518 1.2040001
-0.039208014 -0.083714411 1.2110001
-0.037333675 -0.084267437 1.2190001
-0.035171442 -0.084198311 1.2180001
-0.033039842 -0.084198311 1.2180001
-0.030984366 -0.08440569 1.2210001
-0.13076192 -0.08321213 1.235
-0.12891296 -0.083414271 1.238
-0.12684874 -0.083481647 1.2390001
-0.12337219 -0.082605734 1.2260001
-0.12053443 -0.082134083 1.2190001
-0.1178183 -0.081729807 1.2130001
-0.11540931 -0.08152768 1.21
-0.11282355 -0.081190787 1.205
-0.11053095 -0.081056029 1.2030001
-0.10815521 -0.080853894 1.2
-0.10578997 -0.080651753 1.197
-0.10343523 -0.080449626 1.194
-0.10117587 -0.080314867 1.192
-0.098923512 -0.080180116 1.1900001
-0.096840918 -0.080180116 1.1900001
-0.094678678 -0.080112733 1.189
-0.092597827 -0.080112733 1.189
-0.090440862 -0.080045357 1.1880001
-0.088361755 -0.080045357 1.1880001
-0.086210027 -0.079977974 1.187
-0.084061801 -0.079910599 1.1860001
-0.081986204 -0.079910599 1.1860001
-0.079910599 -0.079910599 1.1860001
-0.077769376 -0.079843223 1.1850001
-0.075695522 -0.079843223 1.1850001
-0.073559545 -0.07977584 1.184
-0.071487442 -0.07977584 1.184
-0.069415346 -0.07977584 1.184
-0.06740012 -0.079843223 1.1850001
-0.065381408 -0.079910599 1.1860001
-0.063252419 -0.079843223 1.1850001
-0.061126944 -0.07977584 1.184
-0.05905484 -0.07977584 1.184
-0.057030872 -0.079843223 1.1850001
-0.055049777 -0.079977974 1.187
-0.053017057 -0.080045357 1.1880001
-0.051023707 -0.080180116 1.1900001
-0.04902336 -0.080314867 1.192
-0.04705539 -0.080517009 1.1950001
-0.045076922 -0.080719136 1.1980001
-0.043052074 -0.080853894 1.2
-0.041020226 -0.080988646 1.202
-0.03924039 -0.081662431 1.212
-0.03739493 -0.082268842 1.2210001
-0.035315827 -0.082403593 1.223
-0.033094093 -0.082201459 1.22
-0.030984366 -0.082268842 1.2210001
-0.13012666 -0.080657013 1.2290001
-0.12337219 -0.080460124 1.2260001
-0.12043555 -0.079935104 1.2180001
-0.11791544 -0.07967259 1.2140001
-0.11560006 -0.079541326 1.212
-0.11310446 -0.079278819 1.2080001
-0.11053095 -0.078950681 1.2030001
-0.10797495 -0.078622542 1.1980001
-0.10561322 -0.078425653 1.1950001
-0.10334861 -0.078294396 1.1930001
-0.10117587 -0.078228764 1.192
-0.099089772 -0.078228764 1.192
-0.096922293 -0.07816314 1.1910001
-0.094678678 -0.078031883 1.189
-0.092597827 -0.078031883 1.189
-0.090593114 -0.078097515 1.1900001
-0.088510513 -0.078097515 1.1900001
-0.086282656 -0.077966258 1.1880001
-0.084132679 -0.077900626 1.187
-0.082055323 -0.077900626 1.187
-0.079843223 -0.077769376 1.1850001
-0.077703744 -0.077703744 1.184
-0.075695522 -0.077769376 1.1850001
-0.073621668 -0.077769376 1.1850001
-0.071547821 -0.077769376 1.1850001
-0.069473974 -0.077769376 1.1850001
-0.06740012 -0.077769376 1.1850001
-0.065436527 -0.077900626 1.187
-0.063359179 -0.077900626 1.187
-0.06128183 -0.077900626 1.187
-0.0591546 -0.077835001 1.1860001
-0.057078999 -0.077835001 1.1860001
-0.055049777 -0.077900626 1.187
-0.053061679 -0.078031883 1.189
-0.051066589 -0.07816314 1.1910001
-0.04902336 -0.078228764 1.192
-0.047016013 -0.078360021 1.194
-0.045076922 -0.078622542 1.1980001
-0.043123826 -0.078885049 1.202
-0.041088481 -0.079016313 1.2040001
-0.03924039 -0.079541326 1.212
-0.037486807 -0.080328874 1.2240001
-0.035402458 -0.080460124 1.2260001
-0.033148345 -0.08019761 1.222
-0.031009743 -0.08019761 1.222
-0.12592731 -0.078570031 1.23
-0.12286904 -0.077995129 1.2210001
-0.12023779 -0.077675745 1.2160001
-0.1178183 -0.077484109 1.2130001
-0.11540931 -0.077292472 1.21
-0.11282355 -0.076973081 1.205
-0.11025532 -0.076653697 1.2
-0.10788482 -0.07646206 1.197
-0.10552483 -0.076270424 1.194
-0.10334861 -0.07620655 1.1930001
-0.10117587 -0.076142661 1.192
-0.099089772 -0.076142661 1.192
-0.096840918 -0.076014914 1.1900001
-0.094678678 -0.075951025 1.189
-0.092519961 -0.075887159 1.1880001
-0.090364724 -0.075823277 1.187
-0.088138625 -0.075695522 1.1850001
-0.085919522 -0.075567767 1.1830001
-0.083849162 -0.075567767 1.1830001
-0.08170969 -0.075503886 1.182
-0.079573713 -0.075440012 1.1810001
-0.077506863 -0.075440012 1.1810001
-0.075440012 -0.075440012 1.1810001
-0.073373161 -0.075440012 1.1810001
-0.07142707 -0.075567767 1.1830001
-0.069415346 -0.075631641 1.184
-0.067343242 -0.075631641 1.184
-0.065381408 -0.075759403 1.1860001
-0.063359179 -0.075823277 1.187
-0.061333455 -0.075887159 1.1880001
-0.059104726 -0.075695522 1.1850001
-0.057030872 -0.075695522 1.1850001
-0.054957025 -0.075695522 1.1850001
-0.052972425 -0.075823277 1.187
-0.050980829 -0.075951025 1.189
-0.048941109 -0.076014914 1.1900001
-0.046897888 -0.076078795 1.1910001
-0.044964042 -0.076334298 1.1950001
-0.042980321 -0.076525934 1.1980001
-0.041054353 -0.076845333 1.2030001
-0.039175637 -0.077292472 1.21
-0.03727242 -0.077739619 1.217
-0.035286948 -0.07805901 1.222
-0.033094093 -0.077931255 1.22
-0.031035122 -0.078122891 1.223
-0.12521066 -0.075982533 1.223
-0.12246652 -0.075609758 1.217
-0.12033666 -0.075609758 1.217
-0.11801256 -0.075485505 1.215
-0.11560006 -0.075299129 1.212
-0.11282355 -0.074864231 1.205
-0.1103472 -0.074615717 1.2010001
-0.10788482 -0.074367203 1.197
-0.10578997 -0.074367203 1.197
-0.10352186 -0.074242949 1.1950001
-0.10134563 -0.074180819 1.194
-0.099256024 -0.074180819 1.194
-0.097085051 -0.074118696 1.1930001
-0.094917566 -0.074056566 1.192
-0.092753597 -0.073994443 1.1910001
-0.090516984 -0.073870182 1.189
-0.088213004 -0.073683806 1.1860001
-0.085992143 -0.073559545 1.184
-0.083778284 -0.073435292 1.182
-0.08157143 -0.073311031 1.1800001
-0.079573713 -0.073373161 1.1810001
-0.077572487 -0.073435292 1.182
-0.075567767 -0.073497415 1.1830001
-0.073497415 -0.073497415 1.1830001
-0.07142707 -0.073497415 1.1830001
-0.069415346 -0.073559545 1.184
-0.06740012 -0.073621668 1.1850001
-0.065436527 -0.073745921 1.187
-0.063412555 -0.073808059 1.1880001
-0.061333455 -0.073808059 1.1880001
-0.0591546 -0.073683806 1.1860001
-0.057030872 -0.073621668 1.1850001
-0.054957025 -0.073621668 1.1850001
-0.053017057 -0.073808059 1.1880001
-0.050980829 -0.073870182 1.189
-0.048982237 -0.073994443 1.1910001
-0.046897888 -0.073994443 1.1910001
-0.044888787 -0.074118696 1.1930001
-0.042944442 -0.074367203 1.197
-0.041020226 -0.074677847 1.202
-0.039078508 -0.074988484 1.207
-0.037119288 -0.075299129 1.212
-0.035113692 -0.075547643 1.2160001
-0.033094093 -0.07579615 1.22
-0.12469876 -0.073540293 1.2180001
-0.12216464 -0.073298782 1.2140001
-0.12013891 -0.073359154 1.215
-0.11772116 -0.073178023 1.212
-0.11512317 -0.072876133 1.207
-0.11244904 -0.072513871 1.2010001
-0.11007155 -0.072332732 1.1980001
-0.10779469 -0.072211981 1.1960001
-0.10561322 -0.072151601 1.1950001
-0.10343523 -0.072091222 1.194
-0.10126076 -0.07203085 1.1930001
-0.099089772 -0.071970463 1.192
-0.096922293 -0.071910091 1.1910001
-0.094678678 -0.071789332 1.189
-0.09244208 -0.071668573 1.187
-0.090212472 -0.071547821 1.1850001
-0.088138625 -0.071547821 1.1850001
-0.085992143 -0.071487442 1.184
-0.08363653 -0.071245931 1.1800001
-0.081294909 -0.071004413 1.176
-0.079304196 -0.0710648 1.177
-0.077506863 -0.071306311 1.1810001
-0.075503886 -0.07136669 1.182
-0.073311031 -0.071245931 1.1800001
-0.071185552 -0.071185552 1.179
-0.069180831 -0.071245931 1.1800001
-0.067229487 -0.07136669 1.182
-0.065271147 -0.071487442 1.184
-0.063252419 -0.071547821 1.1850001
-0.061126944 -0.071487442 1.184
-0.05905484 -0.071487442 1.184
-0.056982744 -0.071487442 1.184
-0.054957025 -0.071547821 1.1850001
-0.0529278 -0.071608201 1.1860001
-0.050895076 -0.071668573 1.187
-0.048858855 -0.07172896 1.1880001
-0.046858508 -0.071849711 1.1900001
-0.044813536 -0.071910091 1.1910001
-0.042836811 -0.072091222 1.194
-0.04088372 -0.072332732 1.1980001
-0.038949002 -0.072634622 1.2030001
-0.036966152 -0.072876133 1.207
-0.034998186 -0.073178023 1.212
-0.033094093 -0.073661044 1.22
-0.12490351 -0.071525946 1.22
-0.12226526 -0.071232803 1.215
-0.12004003 -0.071174182 1.2140001
-0.1175269 -0.07093966 1.21
-0.11502779 -0.07070516 1.2060001
-0.11244904 -0.070412017 1.2010001
-0.11007155 -0.070236139 1.1980001
-0.10779469 -0.070118874 1.1960001
-0.10552483 -0.070001617 1.194
-0.10343523 -0.070001617 1.194
-0.10126076 -0.069942996 1.1930001
-0.099089772 -0.06988436 1.192
-0.096840918 -0.06976711 1.1900001
-0.094599061 -0.06964986 1.1880001
-0.09244208 -0.069591224 1.187
-0.090364724 -0.069591224 1.187
-0.088436134 -0.069708481 1.189
-0.086137407 -0.069532603 1.1860001
-0.083565645 -0.069122203 1.179
-0.081087537 -0.068770438 1.1730001
-0.079102062 -0.068829067 1.174
-0.077309974 -0.069063574 1.1780001
-0.075376131 -0.069180831 1.1800001
-0.0732489 -0.069122203 1.179
-0.07112518 -0.069063574 1.1780001
-0.069122203 -0.069122203 1.179
-0.067172617 -0.06923946 1.1810001
-0.06521602 -0.069356717 1.1830001
-0.063252419 -0.069473974 1.1850001
-0.061230201 -0.069532603 1.1860001
-0.059204478 -0.069591224 1.187
-0.057078999 -0.069532603 1.1860001
-0.055003401 -0.069532603 1.1860001
-0.0529278 -0.069532603 1.1860001
-0.050895076 -0.069591224 1.187
-0.048858855 -0.06964986 1.1880001
-0.046819128 -0.069708481 1.189
-0.044813536 -0.069825739 1.1910001
-0.042836811 -0.070001617 1.194
-0.04088372 -0.070236139 1.1980001
-0.038916621 -0.070470646 1.202
-0.036935531 -0.07070516 1.2060001
-0.034969307 -0.070998296 1.2110001
-0.12490351 -0.069390841 1.22
-0.12226526 -0.069106452 1.215
-0.11974339 -0.068878941 1.2110001
-0.11723552 -0.06865143 1.207
-0.11464627 -0.068367042 1.202
-0.11235542 -0.068253286 1.2
-0.10997967 -0.068082653 1.197
-0.10779469 -0.068025775 1.1960001
-0.10543646 -0.067855142 1.1930001
-0.10334861 -0.067855142 1.1930001
-0.10117587 -0.067798264 1.192
-0.098923512 -0.067684516 1.1900001
-0.096515402 -0.067456998 1.1860001
-0.094280541 -0.067343242 1.184
-0.092130564 -0.067286365 1.1830001
-0.090212472 -0.06740012 1.1850001
-0.088064238 -0.067343242 1.184
-0.085411109 -0.066888221 1.176
-0.082856864 -0.066490076 1.169
-0.080465376 -0.066205688 1.164
-0.078563027 -0.066319443 1.166
-0.076719321 -0.066490076 1.169
-0.07486511 -0.06666071 1.1720001
-0.072938263 -0.066774465 1.174
-0.071004413 -0.066888221 1.176
-0.069004945 -0.066945098 1.177
-0.067001984 -0.067001984 1.1780001
-0.065050632 -0.067115732 1.1800001
-0.063092291 -0.067229487 1.182
-0.061075319 -0.067286365 1.1830001
-0.05905484 -0.067343242 1.184
-0.056982744 -0.067343242 1.184
-0.054910641 -0.067343242 1.184
-0.052883171 -0.06740012 1.1850001
-0.050852202 -0.067456998 1.1860001
-0.048817724 -0.067513876 1.187
-0.046779756 -0.067570761 1.1880001
-0.044738278 -0.067627631 1.189
-0.042729184 -0.067741394 1.1910001
-0.040747214 -0.06791202 1.194
-0.038787119 -0.068139531 1.1980001
-0.03684365 -0.068423927 1.2030001
-0.034969307 -0.068878941 1.2110001
-0.12256715 -0.067145482 1.2180001
-0.11994115 -0.066869847 1.2130001
-0.11742978 -0.06664934 1.2090001
-0.11474166 -0.066318572 1.2030001
-0.11254267 -0.066263437 1.202
-0.11016342 -0.066098057 1.199
-0.10788482 -0.065987803 1.197
-0.10543646 -0.065767296 1.1930001
-0.10326197 -0.065712161 1.192
-0.10100612 -0.065601908 1.1900001
-0.098840386 -0.065546781 1.189
-0.096515402 -0.065381408 1.1860001
-0.094280541 -0.065271147 1.184
-0.092208438 -0.065271147 1.184
-0.090136342 -0.065271147 1.184
-0.087766729 -0.065050632 1.1800001
-0.084975347 -0.064499363 1.1700001
-0.082431599 -0.064113468 1.1630001
-0.080257989 -0.064003207 1.161
-0.078360908 -0.064113468 1.1630001
-0.076456808 -0.064223722 1.1650001
-0.074673474 -0.064444229 1.169
-0.072751872 -0.064554483 1.171
-0.071004413 -0.064830117 1.176
-0.069122203 -0.064995505 1.179
-0.067058854 -0.064995505 1.179
-0.065050632 -0.065050632 1.1800001
-0.063038915 -0.065105766 1.1810001
-0.061075319 -0.06521602 1.1830001
-0.05905484 -0.065271147 1.184
-0.057030872 -0.065326273 1.1850001
-0.054957025 -0.065326273 1.1850001
-0.052883171 -0.065326273 1.1850001
-0.050895076 -0.065436527 1.187
-0.048858855 -0.065491654 1.1880001
-0.046819128 -0.065546781 1.189
-0.044738278 -0.065546781 1.189
-0.042729184 -0.065657042 1.1910001
-0.040747214 -0.065822415 1.194
-0.038819492 -0.066098057 1.199
-0.036904905 -0.066428825 1.205
-0.035084814 -0.066980101 1.215
-0.1223659 -0.064907126 1.2160001
-0.11964452 -0.064586863 1.21
-0.1171384 -0.064373352 1.2060001
-0.11474166 -0.064213216 1.2030001
-0.11244904 -0.064106472 1.2010001
-0.11016342 -0.063999705 1.199
-0.10770456 -0.063786201 1.1950001
-0.10517132 -0.063519314 1.1900001
-0.10291546 -0.063412555 1.1880001
-0.10083636 -0.063412555 1.1880001
-0.098674133 -0.063359179 1.187
-0.096434027 -0.063252419 1.1850001
-0.094200917 -0.063145667 1.1830001
-0.092052683 -0.063092291 1.182
-0.089755692 -0.062932156 1.179
-0.087246083 -0.062611893 1.1730001
-0.084612206 -0.06218487 1.1650001
-0.082289837 -0.061971355 1.161
-0.080119736 -0.061864607 1.159
-0.078158766 -0.061917983 1.1600001
-0.076194294 -0.061971355 1.161
-0.074354075 -0.062131494 1.164
-0.072441243 -0.062238246 1.166
-0.070642151 -0.062451757 1.1700001
-0.068946317 -0.062772021 1.176
-0.067001984 -0.062878788 1.1780001
-0.064995505 -0.062932156 1.179
-0.062932156 -0.062932156 1.179
-0.060868807 -0.062932156 1.179
-0.058805458 -0.062932156 1.179
-0.056838367 -0.063038915 1.1810001
-0.054817893 -0.063092291 1.182
-0.052838545 -0.063199043 1.184
-0.050809324 -0.063252419 1.1850001
-0.048817724 -0.063359179 1.187
-0.046779756 -0.063412555 1.1880001
-0.044738278 -0.063465931 1.189
-0.042693306 -0.063519314 1.1900001
-0.040713087 -0.063679442 1.1930001
-0.038754743 -0.063892946 1.197
-0.03684365 -0.064213216 1.2030001
-0.12256715 -0.062882274 1.2180001
-0.11974339 -0.062520891 1.2110001
-0.11723552 -0.062314373 1.207
-0.11483704 -0.062159494 1.2040001
-0.11254267 -0.062056236 1.202
-0.11025532 -0.061952986 1.2
-0.10770456 -0.061694849 1.1950001
-0.10517132 -0.061436713 1.1900001
-0.10282882 -0.06128183 1.187
-0.10075147 -0.06128183 1.187
-0.098591007 -0.061230201 1.1860001
-0.096352637 -0.061126944 1.184
-0.094200917 -0.061075319 1.1830001
-0.09197481 -0.060972068 1.1810001
-0.089603439 -0.06076555 1.177
-0.087320454 -0.060610667 1.174
-0.084902711 -0.06035253 1.169
-0.082573354 -0.060146026 1.1650001
-0.08039625 -0.060042769 1.1630001
-0.078360908 -0.060042769 1.1630001
-0.076456808 -0.060146026 1.1650001
-0.074545711 -0.06024928 1.1670001
-0.072565503 -0.060300905 1.1680001
-0.07070253 -0.06045578 1.171
-0.068887696 -0.060662299 1.1750001
-0.067058854 -0.060868807 1.179
-0.064995505 -0.060868807 1.179
-0.062878788 -0.060817182 1.1780001
-0.060817182 -0.060817182 1.1780001
-0.05875558 -0.060817182 1.1780001
-0.056790233 -0.060920436 1.1800001
-0.054771516 -0.060972068 1.1810001
-0.052749291 -0.061023686 1.182
-0.050809324 -0.061178569 1.1850001
-0.048817724 -0.06128183 1.187
-0.046858508 -0.061436713 1.1900001
-0.044851158 -0.061539963 1.192
-0.04287269 -0.061694849 1.1950001
-0.040849593 -0.061798099 1.197
-0.038819492 -0.061901353 1.199
-0.036904905 -0.062211119 1.205
-0.12256715 -0.060750674 1.2180001
-0.11964452 -0.060351655 1.21
-0.1171384 -0.060152147 1.2060001
-0.11474166 -0.060002517 1.2030001
-0.11235542 -0.059852883 1.2
-0.11007155 -0.059753127 1.1980001
-0.10761443 -0.059553616 1.194
-0.10525969 -0.059403993 1.1910001
-0.10291546 -0.059254356 1.1880001
-0.1006666 -0.0591546 1.1860001
-0.098507866 -0.059104726 1.1850001
-0.096352637 -0.05905484 1.184
-0.094280541 -0.05905484 1.184
-0.09197481 -0.058905218 1.1810001
-0.089603439 -0.058705702 1.177
-0.087394841 -0.05860595 1.1750001
-0.085265853 -0.058556069 1.174
-0.083069503 -0.058456313 1.1720001
-0.080741897 -0.058256809 1.1680001
-0.078563027 -0.058157045 1.166
-0.076522432 -0.058157045 1.166
-0.074673474 -0.058306683 1.169
-0.072689757 -0.058356561 1.1700001
-0.07070253 -0.058406439 1.171
-0.068829067 -0.058556069 1.174
-0.066945098 -0.058705702 1.177
-0.064940378 -0.05875558 1.1780001
-0.062878788 -0.05875558 1.1780001
-0.060817182 -0.05875558 1.1780001
-0.05875558 -0.05875558 1.1780001
-0.056693986 -0.05875558 1.1780001
-0.054725137 -0.058855332 1.1800001
-0.052704666 -0.058905218 1.1810001
-0.050809324 -0.059104726 1.1850001
-0.048858855 -0.059254356 1.1880001
-0.046897888 -0.059403993 1.1910001
-0.044888787 -0.059503745 1.1930001
-0.042908568 -0.059653375 1.1960001
-0.04088372 -0.059753127 1.1980001
-0.038851872 -0.059852883 1.2
-0.036904905 -0.060102273 1.205
-0.11994115 -0.058378439 1.2130001
-0.11723552 -0.058089674 1.207
-0.11474166 -0.057897162 1.2030001
-0.11226178 -0.057704654 1.199
-0.11007155 -0.05765653 1.1980001
-0.10770456 -0.057512149 1.1950001
-0.10534807 -0.057367764 1.192
-0.10300208 -0.057223383 1.189
-0.10058172 -0.057030872 1.1850001
-0.09842474 -0.056982744 1.184
-0.096189879 -0.05688649 1.182
-0.094200917 -0.056934617 1.1830001
-0.091896929 -0.056790233 1.1800001
-0.089603439 -0.056645852 1.177
-0.087320454 -0.056501471 1.174
-0.085338488 -0.056549601 1.1750001
-0.083069503 -0.056405213 1.1720001
-0.08088015 -0.056308966 1.1700001
-0.07863041 -0.056164581 1.1670001
-0.076653697 -0.056212708 1.1680001
-0.074737348 -0.056308966 1.1700001
-0.072751872 -0.056357086 1.171
-0.070823289 -0.056453347 1.1730001
-0.06871181 -0.056405213 1.1720001
-0.066717587 -0.056453347 1.1730001
-0.064719863 -0.056501471 1.174
-0.062718645 -0.056549601 1.1750001
-0.060713924 -0.056597725 1.176
-0.058705702 -0.056645852 1.177
-0.056693986 -0.056693986 1.1780001
-0.054725137 -0.056790233 1.1800001
-0.052704666 -0.056838367 1.1810001
-0.050809324 -0.057030872 1.1850001
-0.048858855 -0.057175256 1.1880001
-0.046897888 -0.057319637 1.1910001
-0.044888787 -0.057415891 1.1930001
-0.04287269 -0.057512149 1.1950001
-0.040849593 -0.057608396 1.197
-0.038819492 -0.057704654 1.199
-0.036904905 -0.057993416 1.205
-0.12013891 -0.056348339 1.215
-0.11733266 -0.056023698 1.2080001
-0.11474166 -0.055791814 1.2030001
-0.11235542 -0.055652682 1.2
-0.11007155 -0.055559926 1.1980001
-0.10779469 -0.055467173 1.1960001
-0.10552483 -0.055374417 1.194
-0.10317535 -0.055235289 1.1910001
-0.1006666 -0.055003401 1.1860001
-0.09842474 -0.054910641 1.184
-0.096189879 -0.054817893 1.182
-0.094121285 -0.054817893 1.182
-0.091896929 -0.054725137 1.1800001
-0.089603439 -0.054586004 1.177
-0.087246083 -0.0544005 1.1730001
-0.085120596 -0.054354116 1.1720001
-0.082998618 -0.054307736 1.171
-0.08088015 -0.054261364 1.1700001
-0.078697793 -0.054168612 1.1680001
-0.076653697 -0.054168612 1.1680001
-0.0746096 -0.054168612 1.1680001
-0.072627619 -0.054214984 1.169
-0.07070253 -0.054307736 1.171
-0.06871181 -0.054354116 1.1720001
-0.066717587 -0.0544005 1.1730001
-0.064719863 -0.054446869 1.174
-0.062718645 -0.054493252 1.1750001
-0.060713924 -0.054539625 1.176
-0.058705702 -0.054586004 1.177
-0.056742106 -0.054678757 1.179
-0.054771516 -0.054771516 1.1810001
-0.052749291 -0.054817893 1.182
-0.050766442 -0.054910641 1.184
-0.048817724 -0.055049777 1.187
-0.046937261 -0.055281661 1.192
-0.044926412 -0.055374417 1.194
-0.04287269 -0.055420794 1.1950001
-0.040849593 -0.05551355 1.197
-0.038851872 -0.055652682 1.2
-0.036996782 -0.056023698 1.2080001
-0.12033666 -0.054311238 1.217
-0.1175269 -0.05399885 1.21
-0.11493241 -0.053775713 1.205
-0.11244904 -0.053597208 1.2010001
-0.11007155 -0.053463325 1.1980001
-0.10770456 -0.053329445 1.1950001
-0.10543646 -0.053240187 1.1930001
-0.10300208 -0.053061679 1.189
-0.1006666 -0.0529278 1.1860001
-0.09842474 -0.052838545 1.184
-0.096027128 -0.052660037 1.1800001
-0.093802772 -0.052570783 1.1780001
-0.091585405 -0.052481528 1.176
-0.089298934 -0.052347649 1.1730001
-0.087022945 -0.052213769 1.1700001
-0.08483009 -0.052124511 1.1680001
-0.082644224 -0.052035253 1.166
-0.080534503 -0.051990632 1.1650001
-0.078495659 -0.051990632 1.1650001
-0.076456808 -0.051990632 1.1650001
-0.074417964 -0.051990632 1.1650001
-0.072379112 -0.051990632 1.1650001
-0.07046102 -0.052079882 1.1670001
-0.06859456 -0.052213769 1.1700001
-0.066603832 -0.052258391 1.171
-0.064609617 -0.05230302 1.1720001
-0.062558517 -0.05230302 1.1720001
-0.060610667 -0.05239227 1.174
-0.05860595 -0.052436899 1.1750001
-0.056693986 -0.052570783 1.1780001
-0.054771516 -0.052704666 1.1810001
-0.052749291 -0.052749291 1.182
-0.050680693 -0.052749291 1.182
-0.048694346 -0.052838545 1.184
-0.046779756 -0.053017057 1.1880001
-0.044851158 -0.053195558 1.192
-0.042836811 -0.053284816 1.194
-0.040781341 -0.053329445 1.1950001
-0.038819492 -0.05350795 1.199
-0.036996782 -0.053909596 1.2080001
-0.11762404 -0.051924128 1.2110001
-0.11512317 -0.051752616 1.207
-0.11263631 -0.051581111 1.2030001
-0.11016342 -0.051409598 1.199
-0.10770456 -0.051238094 1.1950001
-0.10543646 -0.051152341 1.1930001
-0.10308871 -0.051023707 1.1900001
-0.10092123 -0.050980829 1.189
-0.09842474 -0.050766442 1.184
-0.096108504 -0.050637819 1.1810001
-0.093882397 -0.050552059 1.179
-0.091663294 -0.050466307 1.177
-0.089375049 -0.050337672 1.174
-0.087022945 -0.050166167 1.1700001
-0.08483009 -0.050080415 1.1680001
-0.082715109 -0.050037537 1.1670001
-0.080603629 -0.049994655 1.166
-0.078563027 -0.049994655 1.166
-0.076456808 -0.049951781 1.1650001
-0.074417964 -0.049951781 1.1650001
-0.072441243 -0.049994655 1.166
-0.070521399 -0.050080415 1.1680001
-0.068653181 -0.050209042 1.171
-0.06666071 -0.05025192 1.1720001
-0.064664744 -0.050294802 1.1730001
-0.062611893 -0.050294802 1.1730001
-0.060662299 -0.050380554 1.1750001
-0.058705702 -0.050466307 1.177
-0.056838367 -0.050637819 1.1810001
-0.054864269 -0.050723568 1.1830001
-0.052838545 -0.050766442 1.184
-0.050766442 -0.050766442 1.184
-0.048735473 -0.050809324 1.1850001
-0.046819128 -0.050980829 1.189
-0.044926412 -0.051195215 1.194
-0.042908568 -0.051280972 1.1960001
-0.04088372 -0.051366724 1.1980001
-0.038884249 -0.051495355 1.2010001
-0.12053443 -0.050133791 1.2190001
-0.1175269 -0.049763646 1.21
-0.11502779 -0.049599141 1.2060001
-0.11254267 -0.049434628 1.202
-0.11007155 -0.049270123 1.1980001
