# .PCD v0.7 - Point Cloud Data file format
VERSION 0.7
FIELDS x y z
SIZE 4 4 4
TYPE F F F
COUNT 1 1 1
WIDTH 1440
HEIGHT 1
VIEWPOINT 0 0 0 1 0 0 0
POINTS 1440
DATA ascii
-0.073559545 -0.12328993 1.184
-0.071849711 -0.12391471 1.1900001
-0.070060246 -0.12443537 1.1950001
-0.068139531 -0.12474776 1.1980001
-0.066098057 -0.12485188 1.199
-0.063999705 -0.12485188 1.199
-0.061901353 -0.12485188 1.199
-0.059852883 -0.12495602 1.2
-0.057993416 -0.12547667 1.205
-0.056209207 -0.12620556 1.212
-0.054177362 -0.12641385 1.2140001
-0.13732736 -0.12265117 1.1980001
-0.13624668 -0.12357258 1.207
-0.13313417 -0.12265117 1.1980001
-0.13114694 -0.12275354 1.199
-0.12872571 -0.1224464 1.1960001
-0.12684436 -0.12265117 1.1980001
-0.12433123 -0.12224163 1.194
-0.12183212 -0.12183212 1.1900001
-0.11914574 -0.12121783 1.184
-0.11687588 -0.12101308 1.182
-0.11471016 -0.12091071 1.1810001
-0.11235716 -0.12060355 1.1780001
-0.11001468 -0.12029642 1.1750001
-0.10777457 -0.12009166 1.1730001
-0.10581185 -0.12019403 1.174
-0.10366887 -0.12009166 1.1730001
-0.10161602 -0.12009166 1.1730001
-0.099478289 -0.11998928 1.1720001
-0.097593449 -0.12019403 1.174
-0.095457479 -0.12009166 1.1730001
-0.093324997 -0.11998928 1.1720001
-0.091196015 -0.1198869 1.171
-0.089146666 -0.1198869 1.171
-0.087097317 -0.1198869 1.171
-0.085047968 -0.1198869 1.171
-0.083140381 -0.12009166 1.1730001
-0.08122579 -0.12029642 1.1750001
-0.079236813 -0.12039879 1.176
-0.077178709 -0.12039879 1.176
-0.075248376 -0.12060355 1.1780001
-0.073435292 -0.12101308 1.182
-0.07172896 -0.12162735 1.1880001
-0.069825739 -0.1219345 1.1910001
-0.067968898 -0.12234402 1.1950001
-0.065932676 -0.1224464 1.1960001
-0.063999705 -0.12275354 1.199
-0.061849732 -0.12265117 1.1980001
-0.059703253 -0.12254877 1.197
-0.057849035 -0.12306067 1.202
-0.055930946 -0.12347019 1.2060001
-0.053954225 -0.12377734 1.2090001
-0.051838376 -0.12377734 1.2090001
-0.14012226 -0.12115834 1.2040001
-0.13590805 -0.12115834 1.2040001
-0.13246737 -0.11995077 1.192
-0.13081881 -0.1203533 1.1960001
-0.12883332 -0.12045392 1.197
-0.12684436 -0.12055456 1.1980001
-0.12422711 -0.12005141 1.1930001
-0.12152497 -0.11944763 1.187
-0.11884386 -0.11884386 1.1810001
-0.11657924 -0.11864259 1.179
-0.11441877 -0.11854197 1.1780001
-0.11235716 -0.11854197 1.1780001
-0.1101083 -0.1183407 1.176
-0.10786644 -0.11813945 1.174
-0.10572172 -0.11803881 1.1730001
-0.10366887 -0.11803881 1.1730001
-0.10161602 -0.11803881 1.1730001
-0.099563174 -0.11803881 1.1730001
-0.097593449 -0.11813945 1.174
-0.095538847 -0.11813945 1.174
-0.093324997 -0.11793818 1.1720001
-0.091196015 -0.11783754 1.171
-0.089146666 -0.11783754 1.171
-0.087097317 -0.11783754 1.171
-0.085193232 -0.11803881 1.1730001
-0.083282135 -0.11824008 1.1750001
-0.081294909 -0.1183407 1.176
-0.079304196 -0.11844134 1.177
-0.077244341 -0.11844134 1.177
-0.075312249 -0.11864259 1.179
-0.073373161 -0.11884386 1.1810001
-0.071608201 -0.11934701 1.1860001
-0.069708481 -0.11964888 1.189
-0.067741394 -0.11985015 1.1910001
-0.065767296 -0.12005141 1.1930001
-0.063892946 -0.12045392 1.197
-0.061694849 -0.12025266 1.1950001
-0.059653375 -0.1203533 1.1960001
-0.057897162 -0.1210577 1.2030001
-0.056162834 -0.12186275 1.2110001
-0.054132733 -0.12206401 1.2130001
-0.051881246 -0.12176212 1.21
-0.049763646 -0.12176212 1.21
-0.14222935 -0.11905125 1.2040001
-0.13954033 -0.11855683 1.199
-0.1370981 -0.1182602 1.1960001
-0.13511789 -0.11835907 1.197
-0.13224512 -0.11766692 1.1900001
-0.13027191 -0.1177658 1.1910001
-0.12807992 -0.11766692 1.1900001
-0.12610321 -0.1177658 1.1910001
-0.12360233 -0.11737027 1.187
-0.12111546 -0.11697477 1.1830001
-0.11844134 -0.11638148 1.177
-0.1162826 -0.1162826 1.176
-0.11422449 -0.1162826 1.176
-0.1121664 -0.1162826 1.176
-0.10992105 -0.11608484 1.174
-0.1075908 -0.1157882 1.171
-0.10545133 -0.11568932 1.1700001
-0.10340373 -0.11568932 1.1700001
-0.10135613 -0.11568932 1.1700001
-0.099393405 -0.1157882 1.171
-0.097260937 -0.11568932 1.1700001
-0.095213339 -0.11568932 1.1700001
-0.093006484 -0.11549157 1.1680001
-0.090962388 -0.11549157 1.1680001
-0.088994414 -0.11559044 1.169
-0.086948566 -0.11559044 1.169
-0.084975347 -0.11568932 1.1700001
-0.083140381 -0.11598597 1.1730001
-0.081156656 -0.11608484 1.174
-0.079034686 -0.11598597 1.1730001
-0.076916203 -0.11588708 1.1720001
-0.075056739 -0.11618373 1.1750001
-0.073124647 -0.11638148 1.177
-0.071306311 -0.11677701 1.1810001
-0.069298089 -0.11687588 1.182
-0.067343242 -0.11707364 1.184
-0.065436527 -0.11737027 1.187
-0.06357269 -0.1177658 1.1910001
-0.061488338 -0.1177658 1.1910001
-0.059403993 -0.1177658 1.1910001
-0.057608396 -0.11835907 1.197
-0.055791814 -0.11895236 1.2030001
-0.053775713 -0.11915012 1.205
-0.051666863 -0.11915012 1.205
-0.049599141 -0.119249 1.2060001
-0.14282002 -0.11742978 1.2090001
-0.13919121 -0.1161671 1.1960001
-0.13686883 -0.11597283 1.194
-0.13489214 -0.11606997 1.1950001
-0.13280077 -0.11606997 1.1950001
-0.13016251 -0.11558432 1.1900001
-0.12797228 -0.11548719 1.189
-0.12567967 -0.11529293 1.187
-0.12328993 -0.11500153 1.184
-0.12091071 -0.11471016 1.1810001
-0.11854197 -0.11441877 1.1780001
-0.11618373 -0.11412737 1.1750001
-0.11412737 -0.11412737 1.1750001
-0.11207103 -0.11412737 1.1750001
-0.11001468 -0.11412737 1.1750001
-0.10768269 -0.11383599 1.1720001
-0.10563159 -0.11383599 1.1720001
-0.10349211 -0.11373885 1.171
-0.10144275 -0.11373885 1.171
-0.099393405 -0.11373885 1.171
-0.097177804 -0.11354459 1.169
-0.095050581 -0.11344747 1.1680001
-0.093006484 -0.11344747 1.1680001
-0.090962388 -0.11344747 1.1680001
-0.088918291 -0.11344747 1.1680001
-0.086799808 -0.11335033 1.1670001
-0.084902711 -0.11354459 1.169
-0.082998618 -0.11373885 1.171
-0.081087537 -0.11393312 1.1730001
-0.079034686 -0.11393312 1.1730001
-0.076916203 -0.11383599 1.1720001
-0.074992865 -0.11403023 1.174
-0.073124647 -0.11432163 1.177
-0.071245931 -0.11461303 1.1800001
-0.069180831 -0.11461303 1.1800001
-0.067229487 -0.11480729 1.182
-0.065326273 -0.11509867 1.1850001
-0.063519314 -0.11558432 1.1900001
-0.061436713 -0.11558432 1.1900001
-0.059553616 -0.11597283 1.194
-0.057560276 -0.1161671 1.1960001
-0.055791814 -0.116847 1.2030001
-0.053775713 -0.11704126 1.205
-0.051795494 -0.11733266 1.2080001
-0.049763646 -0.1175269 1.21
-0.047882307 -0.1181097 1.2160001
-0.14246562 -0.11502779 1.2060001
-0.13884206 -0.11378785 1.1930001
-0.13641033 -0.11350172 1.1900001
-0.13421483 -0.11340633 1.189
-0.13257852 -0.11378785 1.1930001
-0.13005313 -0.11340633 1.189
-0.12786466 -0.11331096 1.1880001
-0.12536204 -0.11292943 1.184
-0.12297755 -0.11264332 1.1810001
-0.12060355 -0.11235716 1.1780001
-0.11824008 -0.11207103 1.1750001
-0.11598597 -0.11188027 1.1730001
-0.11393312 -0.11188027 1.1730001
-0.11178489 -0.11178489 1.1720001
-0.10964015 -0.1116895 1.171
-0.10740705 -0.11149874 1.169
-0.1053612 -0.11149874 1.169
-0.10322697 -0.11140337 1.1680001
-0.10109624 -0.11130799 1.1670001
-0.099053897 -0.11130799 1.1670001
-0.096845292 -0.11111723 1.1650001
-0.094725065 -0.11102185 1.164
-0.092767596 -0.11111723 1.1650001
-0.090728745 -0.11111723 1.1650001
-0.088689893 -0.11111723 1.1650001
-0.086502299 -0.11092647 1.1630001
-0.084466949 -0.11092647 1.1630001
-0.082573354 -0.11111723 1.1650001
-0.080741897 -0.11140337 1.1680001
-0.078697793 -0.11140337 1.1680001
-0.076653697 -0.11140337 1.1680001
-0.074673474 -0.11149874 1.169
-0.072938263 -0.11197564 1.174
-0.071004413 -0.1121664 1.176
-0.069004945 -0.11226178 1.177
-0.067001984 -0.11235716 1.1780001
-0.065105766 -0.11264332 1.1810001
-0.063252419 -0.11302482 1.1850001
-0.06128183 -0.11321558 1.187
-0.059403993 -0.1135971 1.1910001
-0.057367764 -0.11369248 1.192
-0.055606302 -0.11436012 1.199
-0.053597208 -0.1145509 1.2010001
-0.051623989 -0.11483704 1.2040001
-0.049599141 -0.11502779 1.2060001
-0.047764175 -0.11569545 1.2130001
-0.14352879 -0.11375985 1.215
-0.14035502 -0.11291719 1.2060001
-0.13698348 -0.11188726 1.1950001
-0.13455348 -0.11160637 1.192
-0.13246737 -0.11160637 1.192
-0.13016251 -0.11141912 1.1900001
-0.12807992 -0.11141912 1.1900001
-0.1255738 -0.1110446 1.1860001
-0.12318581 -0.11076371 1.1830001
-0.12060355 -0.11029557 1.1780001
-0.1183407 -0.1101083 1.176
-0.11598597 -0.10982742 1.1730001
-0.11393312 -0.10982742 1.1730001
-0.11178489 -0.10973379 1.1720001
-0.10964015 -0.10964015 1.171
-0.10740705 -0.1094529 1.169
-0.10527107 -0.10935927 1.1680001
-0.1031386 -0.10926563 1.1670001
-0.10100961 -0.109172 1.166
-0.098969012 -0.109172 1.166
-0.096845292 -0.10907838 1.1650001
-0.094806448 -0.10907838 1.1650001
-0.092767596 -0.10907838 1.1650001
-0.090806618 -0.109172 1.166
-0.088689893 -0.10907838 1.1650001
-0.086502299 -0.10889112 1.1630001
-0.084466949 -0.10889112 1.1630001
-0.082502477 -0.10898475 1.164
-0.080534503 -0.10907838 1.1650001
-0.078563027 -0.109172 1.166
-0.076588064 -0.10926563 1.1670001
-0.0746096 -0.10935927 1.1680001
-0.072876133 -0.10982742 1.1730001
-0.070883662 -0.10992105 1.174
-0.068946317 -0.1101083 1.176
-0.067001984 -0.11029557 1.1780001
-0.065105766 -0.11057646 1.1810001
-0.063305803 -0.1110446 1.1860001
-0.06128183 -0.11113822 1.187
-0.05945386 -0.11160637 1.192
-0.057512149 -0.11188726 1.1950001
-0.055745434 -0.11254267 1.202
-0.053775713 -0.11282355 1.205
-0.051752616 -0.11301082 1.207
-0.049804773 -0.11338534 1.2110001
-0.14317438 -0.11135786 1.212
-0.14047138 -0.11089846 1.207
-0.13698348 -0.10979591 1.1950001
-0.13455348 -0.10952027 1.192
-0.13191172 -0.10906088 1.187
-0.12994377 -0.10915276 1.1880001
-0.12775703 -0.10906088 1.187
-0.12536204 -0.10878523 1.184
-0.12287343 -0.10841773 1.1800001
-0.12019403 -0.10786644 1.174
-0.11803881 -0.10777457 1.1730001
-0.11568932 -0.10749893 1.1700001
-0.11373885 -0.1075908 1.171
-0.11159413 -0.10749893 1.1700001
-0.10935927 -0.10731517 1.1680001
-0.10694765 -0.10694765 1.164
-0.10482043 -0.10685578 1.1630001
-0.1026967 -0.1067639 1.1620001
-0.1006631 -0.1067639 1.1620001
-0.098629497 -0.1067639 1.1620001
-0.096595906 -0.1067639 1.1620001
-0.09464369 -0.10685578 1.1630001
-0.09260834 -0.10685578 1.1630001
-0.090650864 -0.10694765 1.164
-0.088461511 -0.1067639 1.1620001
-0.086427912 -0.1067639 1.1620001
-0.084249057 -0.10658014 1.1600001
-0.082360715 -0.1067639 1.1620001
-0.080327116 -0.1067639 1.1620001
-0.078293525 -0.1067639 1.1620001
-0.076391175 -0.10694765 1.164
-0.074354075 -0.10694765 1.164
-0.072503366 -0.10722329 1.1670001
-0.070521399 -0.10731517 1.1680001
-0.068653181 -0.1075908 1.171
-0.066774465 -0.10786644 1.174
-0.064885251 -0.10814209 1.177
-0.063092291 -0.10860147 1.182
-0.061178569 -0.10887711 1.1850001
-0.05930423 -0.10924463 1.189
-0.057415891 -0.10961216 1.1930001
-0.055559926 -0.11007155 1.1980001
-0.053597208 -0.1103472 1.2010001
-0.051538233 -0.11043906 1.202
-0.049558014 -0.1107147 1.205
-0.047685422 -0.11126599 1.2110001
-0.045754205 -0.11172538 1.2160001
-0.1458949 -0.1096874 1.217
-0.14246562 -0.10869599 1.2060001
-0.14023863 -0.10860585 1.205
-0.13744199 -0.10806508 1.199
-0.13477923 -0.10761443 1.194
-0.13213399 -0.10716379 1.189
-0.13005313 -0.10716379 1.189
-0.12807992 -0.10725392 1.1900001
-0.12567967 -0.10698353 1.187
-0.12318581 -0.10662301 1.1830001
-0.12060355 -0.10617237 1.1780001
-0.11824008 -0.10590198 1.1750001
-0.11588708 -0.10563159 1.1720001
-0.11373885 -0.10554145 1.171
-0.11149874 -0.1053612 1.169
-0.10926563 -0.10518094 1.1670001
-0.10685578 -0.10482043 1.1630001
-0.10464016 -0.10464016 1.161
-0.10260832 -0.10464016 1.161
-0.10048985 -0.10455004 1.1600001
-0.09854462 -0.10464016 1.161
-0.096595906 -0.10473029 1.1620001
-0.094725065 -0.10491055 1.164
-0.09260834 -0.10482043 1.1630001
-0.09049511 -0.10473029 1.1620001
-0.088309258 -0.10455004 1.1600001
-0.086279154 -0.10455004 1.1600001
-0.084249057 -0.10455004 1.1600001
-0.082360715 -0.10473029 1.1620001
-0.080465376 -0.10491055 1.164
-0.078428276 -0.10491055 1.164
-0.076391175 -0.10491055 1.164
-0.074290209 -0.10482043 1.1630001
-0.072379112 -0.10500069 1.1650001
-0.07040064 -0.1050908 1.166
-0.068535931 -0.1053612 1.169
-0.066603832 -0.10554145 1.171
-0.064885251 -0.10608223 1.177
-0.063092291 -0.10653288 1.182
-0.061230201 -0.10689341 1.1860001
-0.059354108 -0.10725392 1.1900001
-0.057415891 -0.10752431 1.1930001
-0.055467173 -0.10779469 1.1960001
-0.053463325 -0.10797495 1.1980001
-0.05145248 -0.10815521 1.2
-0.049475759 -0.10842559 1.2030001
-0.047370408 -0.10842559 1.2030001
-0.045415562 -0.10878611 1.207
-0.15064813 -0.10791107 1.2210001
-0.14851128 -0.10791107 1.2210001
-0.1446961 -0.10667376 1.207
-0.14081177 -0.10534807 1.192
-0.13919121 -0.1057016 1.1960001
-0.13652496 -0.10525969 1.1910001
-0.13421483 -0.10508294 1.189
-0.13180061 -0.1048178 1.1860001
-0.12994377 -0.10499456 1.1880001
-0.12775703 -0.10490617 1.187
-0.12536204 -0.10464104 1.184
-0.12287343 -0.10428753 1.1800001
-0.12050118 -0.10402238 1.177
-0.11803881 -0.10366887 1.1730001
-0.11568932 -0.10340373 1.1700001
-0.1132532 -0.10305021 1.166
-0.11111723 -0.10296184 1.1650001
-0.10889112 -0.10278508 1.1630001
-0.106672 -0.10260832 1.161
-0.10436978 -0.10234318 1.1580001
-0.10225481 -0.10225481 1.1570001
-0.10014332 -0.10216642 1.156
-0.098289989 -0.10234318 1.1580001
-0.096346512 -0.10243156 1.159
-0.094399549 -0.10251994 1.1600001
-0.09228982 -0.10243156 1.159
-0.09010572 -0.10225481 1.1570001
-0.088004731 -0.10216642 1.156
-0.085981637 -0.10216642 1.156
-0.0841038 -0.10234318 1.1580001
-0.082148083 -0.10243156 1.159
-0.080188863 -0.10251994 1.1600001
-0.078158766 -0.10251994 1.1600001
-0.076194294 -0.10260832 1.161
-0.074162446 -0.10260832 1.161
-0.072130598 -0.10260832 1.161
-0.07009875 -0.10260832 1.161
-0.06818416 -0.10278508 1.1630001
-0.066262566 -0.10296184 1.1650001
-0.064444229 -0.10331535 1.169
-0.062665261 -0.10375725 1.174
-0.060920436 -0.10428753 1.1800001
-0.0591546 -0.1048178 1.1860001
-0.05727151 -0.10517132 1.1900001
-0.055281661 -0.10534807 1.192
-0.053284816 -0.10552483 1.194
-0.051238094 -0.10561322 1.1950001
-0.049187873 -0.1057016 1.1960001
-0.04705539 -0.10561322 1.1950001
-0.045265056 -0.10632025 1.2030001
-0.043554351 -0.10729243 1.2140001
-0.15190908 -0.10516782 1.2140001
-0.1508949 -0.10594748 1.223
-0.1486329 -0.10586084 1.222
-0.1452955 -0.10499455 1.212
-0.14175682 -0.10395501 1.2
-0.13837655 -0.10300208 1.189
-0.13629569 -0.10300208 1.189
-0.13432772 -0.10308871 1.1900001
-0.13246737 -0.10326197 1.192
-0.13038127 -0.10326197 1.192
-0.12797228 -0.10300208 1.189
-0.12546793 -0.10265557 1.1850001
-0.12297755 -0.10230906 1.1810001
-0.12070594 -0.10213579 1.179
-0.11813945 -0.10170265 1.174
-0.11588708 -0.10152939 1.1720001
-0.11335033 -0.10109624 1.1670001
-0.11111723 -0.10092299 1.1650001
-0.10879749 -0.1006631 1.1620001
-0.106672 -0.10057647 1.161
-0.10436978 -0.10031659 1.1580001
-0.10225481 -0.10022996 1.1570001
-0.1000567 -0.1000567 1.1550001
-0.098205104 -0.10022996 1.1570001
-0.09618026 -0.10022996 1.1570001
-0.094155408 -0.10022996 1.1570001
-0.092050932 -0.10014332 1.156
-0.090027831 -0.10014332 1.156
-0.088080868 -0.10022996 1.1570001
-0.086056024 -0.10022996 1.1570001
-0.084176429 -0.10040321 1.159
-0.082148083 -0.10040321 1.159
-0.080119736 -0.10040321 1.159
-0.078024015 -0.10031659 1.1580001
-0.075997412 -0.10031659 1.1580001
-0.074098572 -0.10048985 1.1600001
-0.072068475 -0.10048985 1.1600001
-0.07009875 -0.10057647 1.161
-0.06818416 -0.10074973 1.1630001
-0.066262566 -0.10092299 1.1650001
-0.064278841 -0.10100961 1.166
-0.062451757 -0.10135613 1.1700001
-0.060713924 -0.10187591 1.176
-0.05900497 -0.10248232 1.1830001
-0.057175256 -0.10291546 1.1880001
-0.055281661 -0.10326197 1.192
-0.053418696 -0.10369512 1.197
-0.051323846 -0.10369512 1.197
-0.049270123 -0.10378175 1.1980001
-0.04705539 -0.10352186 1.1950001
-0.045453191 -0.10464804 1.2080001
-0.043626104 -0.10534108 1.2160001
-0.15077151 -0.10372224 1.222
-0.14826801 -0.10346761 1.2190001
-0.14565514 -0.10312809 1.215
-0.14211123 -0.10210954 1.2030001
-0.13872568 -0.10117587 1.192
-0.13606644 -0.10075147 1.187
-0.13410197 -0.10083636 1.1880001
-0.13213399 -0.10092123 1.189
-0.13005313 -0.10092123 1.189
-0.12743413 -0.10049684 1.184
-0.12483263 -0.10007244 1.179
-0.12235277 -0.099732928 1.1750001
-0.12019403 -0.099648051 1.174
-0.11783754 -0.099393405 1.171
-0.1157882 -0.099393405 1.171
-0.1132532 -0.098969012 1.166
-0.11092647 -0.098714389 1.1630001
-0.1085166 -0.098374866 1.159
-0.10658014 -0.09845975 1.1600001
-0.10436978 -0.098289989 1.1580001
-0.10216642 -0.098120227 1.156
-0.1000567 -0.09803535 1.1550001
-0.098205104 -0.098205104 1.1570001
-0.09618026 -0.098205104 1.1570001
-0.093992658 -0.09803535 1.1550001
-0.091891676 -0.097950466 1.154
-0.089872077 -0.097950466 1.154
-0.088004731 -0.098120227 1.156
-0.086056024 -0.098205104 1.1570001
-0.0841038 -0.098289989 1.1580001
-0.08200632 -0.098205104 1.1570001
-0.07991235 -0.098120227 1.156
-0.077889249 -0.098120227 1.156
-0.075866155 -0.098120227 1.156
-0.073970817 -0.098289989 1.1580001
-0.071882084 -0.098205104 1.1570001
-0.069917619 -0.098289989 1.1580001
-0.068008281 -0.09845975 1.1600001
-0.06609194 -0.098629497 1.1620001
-0.064168587 -0.098799258 1.164
-0.062238246 -0.098969012 1.166
-0.06045578 -0.099393405 1.171
-0.058705702 -0.099902689 1.177
-0.056934617 -0.10041197 1.1830001
-0.055188909 -0.10100612 1.1900001
-0.053418696 -0.10160027 1.197
-0.051409598 -0.10177002 1.199
-0.049352378 -0.10185491 1.2
-0.047212899 -0.10177002 1.199
-0.045528442 -0.1027037 1.21
-0.043590225 -0.10312809 1.215
-0.15077151 -0.10158364 1.222
-0.14851128 -0.10150052 1.2210001
-0.14625454 -0.10141739 1.22
-0.14293814 -0.10058609 1.21
-0.13942397 -0.099588551 1.1980001
-0.13686883 -0.099256024 1.194
-0.13477923 -0.099256024 1.194
-0.13268964 -0.099256024 1.194
-0.13016251 -0.098923512 1.1900001
-0.12743413 -0.09842474 1.184
-0.12483263 -0.098009095 1.179
-0.12245689 -0.097759709 1.176
-0.12019403 -0.097593449 1.174
-0.11793818 -0.097427189 1.1720001
-0.11588708 -0.097427189 1.1720001
-0.11344747 -0.097094677 1.1680001
-0.1112126 -0.096928418 1.166
-0.10870386 -0.096512765 1.161
-0.106672 -0.096512765 1.161
-0.10455004 -0.096429646 1.1600001
-0.10251994 -0.096429646 1.1600001
-0.10040321 -0.096346512 1.159
-0.098374866 -0.096346512 1.159
-0.096263394 -0.096263394 1.1580001
-0.093992658 -0.096014 1.1550001
-0.091971308 -0.096014 1.1550001
-0.090027831 -0.096097127 1.156
-0.088156998 -0.096263394 1.1580001
-0.086204782 -0.096346512 1.159
-0.084176429 -0.096346512 1.159
-0.082148083 -0.096346512 1.159
-0.08005061 -0.096263394 1.1580001
-0.078024015 -0.096263394 1.1580001
-0.076063037 -0.096346512 1.159
-0.074034691 -0.096346512 1.159
-0.072006345 -0.096346512 1.159
-0.070038378 -0.096429646 1.1600001
-0.068125531 -0.096595906 1.1620001
-0.066148818 -0.096679032 1.1630001
-0.064278841 -0.096928418 1.166
-0.062291626 -0.097011551 1.1670001
-0.060559046 -0.09751033 1.1730001
-0.05860595 -0.097676583 1.1750001
-0.05688649 -0.09825848 1.182
-0.055096157 -0.09875726 1.1880001
-0.053418696 -0.099505417 1.197
-0.051538233 -0.099921063 1.202
-0.049475759 -0.10000419 1.2030001
-0.047370408 -0.10000419 1.2030001
-0.045716576 -0.10100174 1.215
-0.15077151 -0.099445038 1.222
-0.1486329 -0.099445038 1.222
-0.14601479 -0.099119522 1.2180001
-0.14222935 -0.097980224 1.2040001
-0.13977312 -0.097736083 1.2010001
-0.13721274 -0.09741056 1.197
-0.13511789 -0.09741056 1.197
-0.13257852 -0.097085051 1.1930001
-0.12994377 -0.09667816 1.1880001
-0.12732652 -0.096271262 1.1830001
-0.124515 -0.095701605 1.176
-0.12224864 -0.095538847 1.174
-0.1198869 -0.095294714 1.171
-0.11763629 -0.095131956 1.169
-0.11539268 -0.094969198 1.1670001
-0.11305895 -0.094725065 1.164
-0.11083109 -0.0945623 1.1620001
-0.1085166 -0.094318166 1.159
-0.106672 -0.094480924 1.161
-0.10473029 -0.0945623 1.1620001
-0.1026967 -0.0945623 1.1620001
-0.10057647 -0.094480924 1.161
-0.09854462 -0.094480924 1.161
-0.096429646 -0.094399549 1.1600001
-0.094155408 -0.094155408 1.1570001
-0.092130564 -0.094155408 1.1570001
-0.090027831 -0.094074033 1.156
-0.088156998 -0.094236791 1.1580001
-0.086130403 -0.094236791 1.1580001
-0.084176429 -0.094318166 1.159
-0.082148083 -0.094318166 1.159
-0.08005061 -0.094236791 1.1580001
-0.078024015 -0.094236791 1.1580001
-0.075997412 -0.094236791 1.1580001
-0.073906936 -0.094155408 1.1570001
-0.071819961 -0.094074033 1.156
-0.069857247 -0.094155408 1.1570001
-0.067949645 -0.094318166 1.159
-0.066035055 -0.094480924 1.161
-0.064223722 -0.094806448 1.1650001
-0.06218487 -0.094806448 1.1650001
-0.060404163 -0.095213339 1.1700001
-0.058406439 -0.095294714 1.171
-0.056597725 -0.095701605 1.176
-0.054771516 -0.096108504 1.1810001
-0.053106308 -0.096840918 1.1900001
-0.05145248 -0.097654708 1.2
-0.049516886 -0.097980224 1.2040001
-0.047527913 -0.098224349 1.207
-0.045641325 -0.098712631 1.2130001
-0.15126504 -0.097624958 1.2260001
-0.14851128 -0.097226813 1.2210001
-0.1458949 -0.096908294 1.217
-0.14211123 -0.095793493 1.2030001
-0.13977312 -0.095634237 1.2010001
-0.13790052 -0.095793493 1.2030001
-0.13590805 -0.095873125 1.2040001
-0.13346756 -0.095634237 1.2010001
-0.13038127 -0.094917566 1.192
-0.12732652 -0.094200917 1.1830001
-0.12440912 -0.093563877 1.1750001
-0.12204038 -0.093324997 1.1720001
-0.11968214 -0.093086109 1.169
-0.11743503 -0.092926852 1.1670001
-0.11529379 -0.092847221 1.166
-0.11315607 -0.092767596 1.1650001
-0.11092647 -0.09260834 1.1630001
-0.10861024 -0.092369452 1.1600001
-0.106672 -0.092449076 1.161
-0.10482043 -0.09260834 1.1630001
-0.10278508 -0.09260834 1.1630001
-0.10074973 -0.09260834 1.1630001
-0.098629497 -0.092528708 1.1620001
-0.096429646 -0.092369452 1.1600001
-0.094318166 -0.09228982 1.159
-0.092210196 -0.092210196 1.1580001
-0.090261467 -0.09228982 1.159
-0.088233121 -0.09228982 1.159
-0.086204782 -0.09228982 1.159
-0.084249057 -0.092369452 1.1600001
-0.08221896 -0.092369452 1.1600001
-0.080188863 -0.092369452 1.1600001
-0.078091383 -0.09228982 1.159
-0.075997412 -0.092210196 1.1580001
-0.073843054 -0.092050932 1.156
-0.071819961 -0.092050932 1.156
-0.06979686 -0.092050932 1.156
-0.068008281 -0.092369452 1.1600001
-0.066148818 -0.09260834 1.1630001
-0.064389102 -0.093006484 1.1680001
-0.062398378 -0.093086109 1.169
-0.06045578 -0.093245357 1.171
-0.058406439 -0.093245357 1.171
-0.056453347 -0.093404628 1.1730001
-0.054586004 -0.093723141 1.177
-0.052972425 -0.094519429 1.187
-0.051280972 -0.095236085 1.1960001
-0.049352378 -0.095554605 1.2
-0.047370408 -0.095793493 1.2030001
-0.15101828 -0.0953236 1.2240001
-0.14753823 -0.094466932 1.2130001
-0.14481597 -0.094077535 1.2080001
-0.14222935 -0.093766026 1.2040001
-0.13977312 -0.093532383 1.2010001
-0.13767126 -0.093532383 1.2010001
-0.13556941 -0.093532383 1.2010001
-0.13291191 -0.093142986 1.1960001
-0.12972501 -0.092364199 1.1860001
-0.12689598 -0.09181904 1.179
-0.12409148 -0.091273896 1.1720001
-0.12183212 -0.091118142 1.1700001
-0.11947738 -0.090884507 1.1670001
-0.1173344 -0.090806618 1.166
-0.11519492 -0.090728745 1.1650001
-0.11305895 -0.090650864 1.164
-0.11083109 -0.09049511 1.1620001
-0.10861024 -0.090339355 1.1600001
-0.10648826 -0.090261467 1.159
-0.10455004 -0.090339355 1.1600001
-0.10251994 -0.090339355 1.1600001
-0.10057647 -0.090417229 1.161
-0.09854462 -0.090417229 1.161
-0.096429646 -0.090339355 1.1600001
-0.094236791 -0.090183601 1.1580001
-0.092130564 -0.09010572 1.1570001
-0.090183601 -0.090183601 1.1580001
-0.088156998 -0.090183601 1.1580001
-0.086130403 -0.090183601 1.1580001
-0.0841038 -0.090183601 1.1580001
-0.082077213 -0.090183601 1.1580001
-0.079981484 -0.09010572 1.1570001
-0.077956632 -0.09010572 1.1570001
-0.075800531 -0.089949958 1.1550001
-0.073779188 -0.089949958 1.1550001
-0.071695708 -0.089872077 1.154
-0.069857247 -0.09010572 1.1570001
-0.068066902 -0.090417229 1.161
-0.066262566 -0.090728745 1.1650001
-0.064333975 -0.090884507 1.1670001
-0.062398378 -0.091040254 1.169
-0.060404163 -0.091118142 1.1700001
-0.058356561 -0.091118142 1.1700001
-0.056357086 -0.091196015 1.171
-0.054493252 -0.091507532 1.1750001
-0.052704666 -0.09197481 1.1810001
-0.050852202 -0.092364199 1.1860001
-0.048982237 -0.092753597 1.1910001
-0.047212899 -0.093376614 1.199
-0.15027799 -0.092724718 1.2180001
-0.14693007 -0.091963433 1.2080001
-0.14553526 -0.092420205 1.2140001
-0.14305627 -0.092191823 1.2110001
-0.14012226 -0.09165892 1.2040001
-0.13778588 -0.09150666 1.202
-0.13545652 -0.0913544 1.2
-0.13291191 -0.091049887 1.1960001
-0.12950623 -0.090136342 1.184
-0.12668073 -0.089603439 1.177
-0.12430323 -0.089375049 1.174
-0.12193624 -0.089146666 1.171
-0.11957976 -0.088918291 1.1680001
-0.11743503 -0.088842154 1.1670001
-0.11539268 -0.088842154 1.1670001
-0.11335033 -0.088842154 1.1670001
-0.11111723 -0.088689893 1.1650001
-0.10870386 -0.088385381 1.161
-0.10658014 -0.088309258 1.1600001
-0.1044599 -0.088233121 1.159
-0.10251994 -0.088309258 1.1600001
-0.10048985 -0.088309258 1.1600001
-0.098629497 -0.088461511 1.1620001
-0.096512765 -0.088385381 1.161
-0.094318166 -0.088233121 1.159
-0.092210196 -0.088156998 1.1580001
-0.090261467 -0.088233121 1.159
-0.088309258 -0.088309258 1.1600001
-0.086279154 -0.088309258 1.1600001
-0.084176429 -0.088233121 1.159
-0.08221896 -0.088309258 1.1600001
-0.080119736 -0.088233121 1.159
-0.078158766 -0.088309258 1.1600001
-0.076063037 -0.088233121 1.159
-0.073970817 -0.088156998 1.1580001
-0.071944222 -0.088156998 1.1580001
-0.069977991 -0.088233121 1.159
-0.068125531 -0.088461511 1.1620001
-0.066262566 -0.088689893 1.1650001
-0.064389102 -0.088918291 1.1680001
-0.062451757 -0.089070544 1.1700001
-0.06045578 -0.089146666 1.171
-0.058456313 -0.089222796 1.1720001
-0.056405213 -0.089222796 1.1720001
-0.054446869 -0.089375049 1.174
-0.052615408 -0.089755692 1.179
-0.050680693 -0.089984089 1.182
-0.048776601 -0.090288602 1.1860001
-0.047134146 -0.09112601 1.197
-0.045340311 -0.091735043 1.205
-0.14990784 -0.090369977 1.215
-0.14729497 -0.090072468 1.2110001
-0.14493586 -0.08992371 1.2090001
-0.14246562 -0.089700572 1.2060001
-0.13988948 -0.089403048 1.202
-0.13732736 -0.089105546 1.1980001
-0.13500501 -0.088956788 1.1960001
-0.13213399 -0.088436134 1.189
-0.12906872 -0.087766729 1.1800001
-0.12646547 -0.087394841 1.1750001
-0.12419736 -0.087246083 1.1730001
-0.12204038 -0.087171696 1.1720001
-0.11968214 -0.086948566 1.169
-0.1173344 -0.086725421 1.166
-0.11509604 -0.08657667 1.164
-0.11286469 -0.086427912 1.1620001
-0.11073571 -0.086353526 1.161
-0.10861024 -0.086279154 1.1600001
-0.10658014 -0.086279154 1.1600001
-0.1044599 -0.086204782 1.159
-0.10225481 -0.086056024 1.1570001
-0.10022996 -0.086056024 1.1570001
-0.098374866 -0.086204782 1.159
-0.096429646 -0.086279154 1.1600001
-0.094236791 -0.086130403 1.1580001
-0.092130564 -0.086056024 1.1570001
-0.09010572 -0.086056024 1.1570001
-0.088233121 -0.086204782 1.159
-0.086204782 -0.086204782 1.159
-0.0841038 -0.086130403 1.1580001
-0.082077213 -0.086130403 1.1580001
-0.079981484 -0.086056024 1.1570001
-0.078091383 -0.086204782 1.159
-0.076063037 -0.086204782 1.159
-0.074034691 -0.086204782 1.159
-0.071819961 -0.085981637 1.156
-0.06979686 -0.085981637 1.156
-0.067832395 -0.086056024 1.1570001
-0.065921299 -0.086204782 1.159
-0.064058334 -0.086427912 1.1620001
-0.062131494 -0.08657667 1.164
-0.060197648 -0.086725421 1.166
-0.058256809 -0.086874187 1.1680001
-0.056260832 -0.086948566 1.169
-0.0544005 -0.087246083 1.1730001
-0.052481528 -0.087469205 1.176
-0.050552059 -0.08769235 1.179
-0.048653223 -0.087989867 1.1830001
-0.046897888 -0.088584892 1.1910001
-0.045152176 -0.089254305 1.2
-0.1486329 -0.088752024 1.222
-0.1452955 -0.088025734 1.212
-0.14222935 -0.087444715 1.2040001
-0.13942397 -0.087008946 1.1980001
-0.1370981 -0.086863682 1.1960001
-0.13511789 -0.08693631 1.197
-0.13213399 -0.086355284 1.189
-0.12939687 -0.085919522 1.1830001
-0.12657309 -0.085411109 1.176
-0.124515 -0.085411109 1.176
-0.12214451 -0.085193232 1.1730001
-0.1198869 -0.085047968 1.171
-0.11743503 -0.084757462 1.1670001
-0.11519492 -0.084612206 1.1650001
-0.11296183 -0.084466949 1.1630001
-0.11092647 -0.084466949 1.1630001
-0.10889112 -0.084466949 1.1630001
-0.10694765 -0.08453957 1.164
-0.10473029 -0.084394321 1.1620001
-0.10243156 -0.084176429 1.159
-0.10022996 -0.084031172 1.1570001
-0.098289989 -0.0841038 1.1580001
-0.096346512 -0.084176429 1.159
-0.094318166 -0.084176429 1.159
-0.09228982 -0.084176429 1.159
-0.090261467 -0.084176429 1.159
-0.088156998 -0.0841038 1.1580001
-0.086279154 -0.084249057 1.1600001
-0.084176429 -0.084176429 1.159
-0.08221896 -0.084249057 1.1600001
-0.080188863 -0.084249057 1.1600001
-0.078226142 -0.084321685 1.161
-0.076128669 -0.084249057 1.1600001
-0.073970817 -0.0841038 1.1580001
-0.071819961 -0.083958536 1.156
-0.06979686 -0.083958536 1.156
-0.067832395 -0.084031172 1.1570001
-0.065921299 -0.084176429 1.159
-0.064058334 -0.084394321 1.1620001
-0.062078118 -0.084466949 1.1630001
-0.060094394 -0.08453957 1.164
-0.058107179 -0.084612206 1.1650001
-0.056164581 -0.084757462 1.1670001
-0.054307736 -0.085047968 1.171
-0.052436899 -0.085338488 1.1750001
-0.050594937 -0.08570163 1.1800001
-0.048653223 -0.085919522 1.1830001
-0.046819128 -0.086355284 1.189
-0.044888787 -0.086645797 1.1930001
-0.14517562 -0.085833758 1.2110001
-0.14199309 -0.085195847 1.202
-0.13930759 -0.08484146 1.197
-0.13675421 -0.08455795 1.1930001
-0.13466635 -0.08455795 1.1930001
-0.13168947 -0.083990924 1.1850001
-0.12895933 -0.083565645 1.179
-0.12625021 -0.083140381 1.1730001
-0.12419736 -0.083140381 1.1730001
-0.12204038 -0.083069503 1.1720001
-0.1198869 -0.082998618 1.171
-0.11743503 -0.082715109 1.1670001
-0.11519492 -0.082573354 1.1650001
-0.11267043 -0.08221896 1.1600001
-0.11073571 -0.082289837 1.161
-0.10870386 -0.082289837 1.161
-0.1067639 -0.082360715 1.1620001
-0.10455004 -0.08221896 1.1600001
-0.10234318 -0.082077213 1.1580001
-0.10022996 -0.08200632 1.1570001
-0.098120227 -0.081935443 1.156
-0.09618026 -0.08200632 1.1570001
-0.094074033 -0.081935443 1.156
-0.092050932 -0.081935443 1.156
-0.090027831 -0.081935443 1.156
-0.088004731 -0.081935443 1.156
-0.085981637 -0.081935443 1.156
-0.083958536 -0.081935443 1.156
-0.08200632 -0.08200632 1.1570001
-0.079981484 -0.08200632 1.1570001
-0.078024015 -0.082077213 1.1580001
-0.07593178 -0.08200632 1.1570001
-0.073970817 -0.082077213 1.1580001
-0.071882084 -0.08200632 1.1570001
-0.069917619 -0.082077213 1.1580001
-0.067832395 -0.08200632 1.1570001
-0.065864421 -0.082077213 1.1580001
-0.063837834 -0.082077213 1.1580001
-0.061917983 -0.08221896 1.1600001
-0.059887886 -0.08221896 1.1600001
-0.057957541 -0.082360715 1.1620001
-0.0560202 -0.082502477 1.164
-0.054168612 -0.082785994 1.1680001
-0.052258391 -0.082998618 1.171
-0.050380554 -0.083282135 1.1750001
-0.048365328 -0.083353005 1.176
-0.046504118 -0.083707415 1.1810001
-0.044587772 -0.083990924 1.1850001
-0.14505574 -0.083645277 1.21
-0.14246562 -0.083368771 1.2060001
-0.13988948 -0.08309225 1.202
-0.13721274 -0.08274661 1.197
-0.13466635 -0.082470104 1.1930001
-0.13168947 -0.08191707 1.1850001
-0.12895933 -0.081502296 1.179
-0.12646547 -0.08122579 1.1750001
-0.124515 -0.081294909 1.176
-0.12245689 -0.081294909 1.176
-0.12009166 -0.081087537 1.1730001
-0.11763629 -0.080811016 1.169
-0.11529379 -0.080603629 1.166
-0.11296183 -0.08039625 1.1630001
-0.11083109 -0.080327116 1.1620001
-0.10879749 -0.080327116 1.1620001
-0.1067639 -0.080327116 1.1620001
-0.10473029 -0.080327116 1.1620001
-0.10260832 -0.080257989 1.161
-0.10048985 -0.080188863 1.1600001
-0.098374866 -0.080119736 1.159
-0.09618026 -0.079981484 1.1570001
-0.093992658 -0.079843223 1.1550001
-0.091971308 -0.079843223 1.1550001
-0.089872077 -0.079774089 1.154
-0.087928616 -0.079843223 1.1550001
-0.085907266 -0.079843223 1.1550001
-0.083958536 -0.07991235 1.156
-0.08200632 -0.079981484 1.1570001
-0.08005061 -0.08005061 1.1580001
-0.078024015 -0.08005061 1.1580001
-0.075997412 -0.08005061 1.1580001
-0.074034691 -0.080119736 1.159
-0.072006345 -0.080119736 1.159
-0.07009875 -0.080257989 1.161
-0.068008281 -0.080188863 1.1600001
-0.065978184 -0.080188863 1.1600001
-0.063892953 -0.080119736 1.159
-0.061864607 -0.080119736 1.159
-0.059887886 -0.080188863 1.1600001
-0.057957541 -0.080327116 1.1620001
-0.0560202 -0.080465376 1.164
-0.054122232 -0.080672756 1.1670001
-0.052213769 -0.08088015 1.1700001
-0.050294802 -0.081087537 1.1730001
-0.048365328 -0.081294909 1.176
-0.046504118 -0.081640564 1.1810001
-0.14433646 -0.081123412 1.2040001
-0.14187495 -0.080921277 1.2010001
-0.13988948 -0.080988646 1.202
-0.13767126 -0.080921277 1.2010001
-0.13477923 -0.080449626 1.194
-0.13191172 -0.079977974 1.187
-0.12895933 -0.079438955 1.179
-0.12657309 -0.079236813 1.176
-0.12440912 -0.079169437 1.1750001
-0.12235277 -0.079169437 1.1750001
-0.1198869 -0.07889992 1.171
-0.1173344 -0.078563027 1.166
-0.11499716 -0.078360908 1.1630001
-0.11267043 -0.078158766 1.1600001
-0.11064033 -0.078158766 1.1600001
-0.10861024 -0.078158766 1.1600001
-0.10658014 -0.078158766 1.1600001
-0.10464016 -0.078226142 1.161
-0.10260832 -0.078226142 1.161
-0.10057647 -0.078226142 1.161
-0.098374866 -0.078091383 1.159
-0.096097127 -0.077889249 1.156
-0.093829885 -0.077687114 1.153
-0.091652788 -0.077552356 1.151
-0.089560568 -0.077484988 1.1500001
-0.087700225 -0.077619739 1.1520001
-0.085609742 -0.077552356 1.151
-0.083740652 -0.077687114 1.153
-0.081722803 -0.077687114 1.153
-0.079774089 -0.07775449 1.154
-0.077821873 -0.077821873 1.1550001
-0.075800531 -0.077821873 1.1550001
-0.073906936 -0.077956632 1.1570001
-0.071882084 -0.077956632 1.1570001
-0.069857247 -0.077956632 1.1570001
-0.067891024 -0.078024015 1.1580001
-0.065807544 -0.077956632 1.1570001
-0.063782699 -0.077956632 1.1570001
-0.061757851 -0.077956632 1.1570001
-0.059784632 -0.078024015 1.1580001
-0.057807911 -0.078091383 1.159
-0.055875815 -0.078226142 1.161
-0.0539831 -0.078428276 1.164
-0.052079882 -0.07863041 1.1670001
-0.050080415 -0.078697793 1.1680001
-0.048159692 -0.07889992 1.171
-0.046307229 -0.079236813 1.176
-0.14493586 -0.079344451 1.2090001
-0.14211123 -0.078950681 1.2030001
-0.14023863 -0.07908193 1.205
-0.13767126 -0.078819424 1.2010001
-0.13477923 -0.078360021 1.194
-0.13180061 -0.077835001 1.1860001
-0.12928747 -0.077572487 1.182
-0.12721887 -0.077572487 1.182
-0.12483263 -0.077375598 1.179
-0.12245689 -0.077178709 1.176
-0.11968214 -0.076719321 1.169
-0.11723378 -0.076456808 1.1650001
-0.11499716 -0.076325551 1.1630001
-0.11276755 -0.076194294 1.161
-0.11083109 -0.076259919 1.1620001
-0.10879749 -0.076259919 1.1620001
-0.10685578 -0.076325551 1.1630001
-0.10482043 -0.076325551 1.1630001
-0.1026967 -0.076259919 1.1620001
-0.1006631 -0.076259919 1.1620001
-0.09854462 -0.076194294 1.161
-0.096346512 -0.076063037 1.159
-0.093911275 -0.075734898 1.154
-0.09173242 -0.075603642 1.1520001
-0.08948268 -0.07540676 1.149
-0.087471835 -0.07540676 1.149
-0.085460991 -0.07540676 1.149
-0.083813287 -0.075734898 1.154
-0.081793696 -0.075734898 1.154
-0.07991235 -0.075866155 1.156
-0.077821873 -0.075800531 1.1550001
-0.075866155 -0.075866155 1.156
-0.073843054 -0.075866155 1.156
-0.071819961 -0.075866155 1.156
-0.06979686 -0.075866155 1.156
-0.067891024 -0.075997412 1.1580001
-0.065864421 -0.075997412 1.1580001
-0.063892953 -0.076063037 1.159
-0.061864607 -0.076063037 1.159
-0.059836257 -0.076063037 1.159
-0.057807911 -0.076063037 1.159
-0.055875815 -0.076194294 1.161
-0.054029476 -0.076456808 1.1650001
-0.052169137 -0.076719321 1.169
-0.050166167 -0.076784953 1.1700001
-0.048283074 -0.07704746 1.174
-0.046385989 -0.077309974 1.1780001
-0.14258374 -0.077100836 1.207
-0.14012226 -0.076909207 1.2040001
-0.13732736 -0.076525934 1.1980001
-0.13455348 -0.076142661 1.192
-0.13180061 -0.075759403 1.1860001
-0.12939687 -0.075567767 1.1830001
-0.12700363 -0.075376131 1.1800001
-0.124515 -0.075120613 1.176
-0.12183212 -0.074737348 1.1700001
-0.11937499 -0.074481837 1.166
-0.11703251 -0.074290209 1.1630001
-0.11499716 -0.074290209 1.1630001
-0.11286469 -0.074226327 1.1620001
-0.11083109 -0.074226327 1.1620001
-0.10879749 -0.074226327 1.1620001
-0.106672 -0.074162446 1.161
-0.10464016 -0.074162446 1.161
-0.10243156 -0.074034691 1.159
-0.10031659 -0.073970817 1.1580001
-0.098205104 -0.073906936 1.1570001
-0.096014 -0.073779188 1.1550001
-0.093748517 -0.073587552 1.1520001
-0.091334276 -0.073268153 1.1470001
-0.08909329 -0.073076516 1.1440001
-0.0870912 -0.073076516 1.1440001
-0.085163482 -0.073140398 1.1450001
-0.083450146 -0.073395915 1.149
-0.081651933 -0.073587552 1.1520001
-0.079774089 -0.073715299 1.154
-0.077687114 -0.073651418 1.153
-0.075669266 -0.073651418 1.153
-0.073587552 -0.073587552 1.1520001
-0.07163357 -0.073651418 1.153
-0.069615722 -0.073651418 1.153
-0.067715146 -0.073779188 1.1550001
-0.065693788 -0.073779188 1.1550001
-0.063782699 -0.073906936 1.1570001
-0.061704468 -0.073843054 1.156
-0.059784632 -0.073970817 1.1580001
-0.057708155 -0.073906936 1.1570001
-0.055779561 -0.074034691 1.159
-0.053890344 -0.074226327 1.1620001
-0.052035253 -0.074481837 1.166
-0.050037537 -0.074545711 1.1670001
-0.048077438 -0.074673474 1.169
-0.046267856 -0.075056739 1.1750001
-0.14187495 -0.074615717 1.2010001
-0.14058776 -0.075050615 1.2080001
-0.13778588 -0.074677847 1.202
-0.13421483 -0.073870182 1.189
-0.13146721 -0.073497415 1.1830001
-0.12917811 -0.073373161 1.1810001
-0.12678836 -0.073186778 1.1780001
-0.12430323 -0.072938263 1.174
-0.12183212 -0.072689757 1.1700001
-0.11957976 -0.072565503 1.1680001
-0.11723378 -0.072379112 1.1650001
-0.11519492 -0.072379112 1.1650001
-0.11315607 -0.072379112 1.1650001
-0.11111723 -0.072379112 1.1650001
-0.10898475 -0.072316982 1.164
-0.106672 -0.072130598 1.161
-0.1044599 -0.072006345 1.159
-0.10243156 -0.072006345 1.159
-0.10031659 -0.071944222 1.1580001
-0.098205104 -0.071882084 1.1570001
-0.096014 -0.071757831 1.1550001
-0.093504377 -0.071385063 1.149
-0.091095388 -0.071074426 1.1440001
-0.088859655 -0.070888035 1.141
-0.08678668 -0.07082592 1.1400001
-0.084865957 -0.070888035 1.141
-0.083232261 -0.07119868 1.146
-0.081439294 -0.071385063 1.149
-0.079635836 -0.071571454 1.1520001
-0.077619739 -0.071571454 1.1520001
-0.075603642 -0.071571454 1.1520001
-0.073651418 -0.07163357 1.153
-0.07163357 -0.07163357 1.153
-0.069676101 -0.071695708 1.154
-0.067773767 -0.071819961 1.156
-0.065750666 -0.071819961 1.156
-0.063782699 -0.071882084 1.1570001
-0.061757851 -0.071882084 1.1570001
-0.059836257 -0.072006345 1.159
-0.057807911 -0.072006345 1.159
-0.055923946 -0.072192729 1.1620001
-0.0539831 -0.072316982 1.164
-0.052079882 -0.072503366 1.1670001
-0.050037537 -0.072503366 1.1670001
-0.048118569 -0.072689757 1.1700001
-0.046267856 -0.073000394 1.1750001
-0.13998486 -0.071547821 1.1850001
-0.13954033 -0.072393112 1.199
-0.13767126 -0.072513871 1.2010001
-0.1344406 -0.071910091 1.1910001
-0.13157833 -0.071487442 1.184
-0.12884997 -0.07112518 1.1780001
-0.12635784 -0.070883662 1.174
-0.12387972 -0.070642151 1.1700001
-0.12162387 -0.070521399 1.1680001
-0.11947738 -0.07046102 1.1670001
-0.11723378 -0.070340261 1.1650001
-0.11509604 -0.070279881 1.164
-0.11296183 -0.070219509 1.1630001
-0.11092647 -0.070219509 1.1630001
-0.10870386 -0.07009875 1.161
-0.10648826 -0.069977991 1.159
-0.10418952 -0.06979686 1.156
-0.10207804 -0.069736488 1.1550001
-0.099970065 -0.069676101 1.154
-0.097950466 -0.069676101 1.154
-0.095764615 -0.06955535 1.1520001
-0.093178868 -0.069132708 1.1450001
-0.090617612 -0.068710059 1.138
-0.088392384 -0.068528935 1.1350001
-0.086406045 -0.068528935 1.1350001
-0.084494069 -0.0685893 1.136
-0.082723856 -0.068770438 1.1390001
-0.081014022 -0.069011942 1.143
-0.07922107 -0.069193088 1.146
-0.077417605 -0.069374219 1.149
-0.07540676 -0.069374219 1.149
-0.073459789 -0.069434598 1.1500001
-0.071447194 -0.069434598 1.1500001
-0.06949497 -0.06949497 1.151
-0.067539252 -0.06955535 1.1520001
-0.065580033 -0.069615722 1.153
-0.063617311 -0.069676101 1.154
-0.06159772 -0.069676101 1.154
-0.059733 -0.069857247 1.1570001
-0.057758033 -0.069917619 1.1580001
-0.055875815 -0.07009875 1.161
-0.053890344 -0.07015913 1.1620001
-0.051990632 -0.070340261 1.1650001
-0.049994655 -0.07040064 1.166
-0.048036315 -0.070521399 1.1680001
-0.046228476 -0.070883662 1.174
-0.14229847 -0.069591224 1.187
-0.14057553 -0.06976711 1.1900001
-0.13884206 -0.069942996 1.1930001
-0.13755663 -0.070353389 1.2
-0.13432772 -0.06976711 1.1900001
-0.13146721 -0.069356717 1.1830001
-0.12874056 -0.069004945 1.177
-0.12646547 -0.068887696 1.1750001
-0.12409148 -0.06871181 1.1720001
-0.12172799 -0.068535931 1.169
-0.11947738 -0.068418667 1.1670001
-0.1173344 -0.068360038 1.166
-0.11519492 -0.068301417 1.1650001
-0.11315607 -0.068301417 1.1650001
-0.11102185 -0.068242781 1.164
-0.10879749 -0.068125531 1.1620001
-0.10658014 -0.068008281 1.1600001
-0.10427964 -0.067832395 1.1570001
-0.10198966 -0.06765651 1.154
-0.099883437 -0.067597881 1.153
-0.097950466 -0.06765651 1.154
-0.095764615 -0.067539252 1.1520001
-0.093016103 -0.067011602 1.143
-0.090537988 -0.066659838 1.1370001
-0.088236623 -0.066425323 1.133
-0.086329907 -0.066483952 1.1340001
-0.084270932 -0.066425323 1.133
-0.082505971 -0.066601202 1.136
-0.080730513 -0.066777095 1.1390001
-0.078875422 -0.066894345 1.141
-0.07721547 -0.067187488 1.146
-0.07540676 -0.067363366 1.149
-0.073523663 -0.067480624 1.151
-0.071509317 -0.067480624 1.151
-0.06949497 -0.067480624 1.151
-0.067539252 -0.067539252 1.1520001
-0.06563691 -0.06765651 1.154
-0.063617311 -0.06765651 1.154
-0.061704468 -0.067773767 1.156
-0.059784632 -0.067891024 1.1580001
-0.057857785 -0.068008281 1.1600001
-0.055875815 -0.068066902 1.161
-0.053890344 -0.068125531 1.1620001
-0.051990632 -0.068301417 1.1650001
-0.050037537 -0.068418667 1.1670001
-0.048077438 -0.068535931 1.169
-0.0461891 -0.068770438 1.1730001
-0.1416387 -0.068196408 1.199
-0.13942397 -0.068139531 1.1980001
-0.13732736 -0.068139531 1.1980001
-0.1344406 -0.067741394 1.1910001
-0.13135608 -0.067229487 1.182
-0.12874056 -0.066945098 1.177
-0.12625021 -0.066717587 1.1730001
-0.12398559 -0.066603832 1.171
-0.12172799 -0.066490076 1.169
-0.11937499 -0.066319443 1.166
-0.11723378 -0.066262566 1.1650001
-0.11499716 -0.066148818 1.1630001
-0.11286469 -0.06609194 1.1620001
-0.11083109 -0.06609194 1.1620001
-0.10861024 -0.065978184 1.1600001
-0.1063045 -0.065807544 1.1570001
-0.10391913 -0.065580033 1.153
-0.10163615 -0.065409407 1.1500001
-0.099623546 -0.065409407 1.1500001
-0.097526073 -0.065352522 1.149
-0.095265836 -0.065181889 1.146
-0.092609204 -0.064726867 1.138
-0.090378731 -0.064556241 1.1350001
-0.088080868 -0.064328723 1.131
-0.086101525 -0.064328723 1.131
-0.08419656 -0.064385608 1.1320001
-0.082505971 -0.064613111 1.136
-0.080659635 -0.064726867 1.138
-0.07873717 -0.064783745 1.1390001
-0.076878577 -0.0648975 1.141
-0.075144246 -0.065125011 1.1450001
-0.073332027 -0.065295644 1.148
-0.071322933 -0.065295644 1.148
-0.069313832 -0.065295644 1.148
-0.067363366 -0.065352522 1.149
-0.065466277 -0.065466277 1.151
-0.063507058 -0.065523155 1.1520001
-0.06159772 -0.06563691 1.154
-0.059681375 -0.065750666 1.156
-0.057658274 -0.065750666 1.156
-0.055683307 -0.065807544 1.1570001
-0.053751212 -0.065921299 1.159
-0.051901374 -0.066148818 1.1630001
-0.049951781 -0.066262566 1.1650001
-0.048036315 -0.066433199 1.1680001
-0.046149723 -0.06666071 1.1720001
-0.13698348 -0.065877549 1.1950001
-0.13398908 -0.065436527 1.187
-0.13124496 -0.065105766 1.1810001
-0.12884997 -0.064940378 1.1780001
-0.12646547 -0.06477499 1.1750001
-0.12419736 -0.064664744 1.1730001
-0.12183212 -0.064499363 1.1700001
-0.11957976 -0.064389102 1.1680001
-0.11723378 -0.064223722 1.1650001
-0.11499716 -0.064113468 1.1630001
-0.11286469 -0.064058334 1.1620001
-0.11083109 -0.064058334 1.1620001
-0.10861024 -0.06394808 1.1600001
-0.10639638 -0.063837834 1.1580001
-0.10400926 -0.063617311 1.154
-0.10181291 -0.063507058 1.1520001
-0.099796809 -0.063507058 1.1520001
-0.097610958 -0.063396804 1.1500001
-0.095348969 -0.063231416 1.1470001
-0.092853352 -0.062900655 1.141
-0.090697244 -0.062790401 1.1390001
-0.088392384 -0.062569894 1.1350001
-0.086329907 -0.06251476 1.1340001
-0.084345318 -0.06251476 1.1340001
-0.082651228 -0.062735267 1.138
-0.080730513 -0.062790401 1.1390001
-0.07873717 -0.062790401 1.1390001
-0.076811202 -0.062845528 1.1400001
-0.075078614 -0.063066043 1.1440001
-0.073332027 -0.063286543 1.148
-0.071385063 -0.063341677 1.149
-0.069313832 -0.063286543 1.148
-0.067363366 -0.063341677 1.149
-0.065409407 -0.063396804 1.1500001
-0.063507058 -0.063507058 1.1520001
-0.06159772 -0.063617311 1.154
-0.059681375 -0.063727573 1.156
-0.057708155 -0.063782699 1.1570001
-0.055731438 -0.063837834 1.1580001
-0.053843968 -0.064003207 1.161
-0.051946003 -0.064168587 1.164
-0.049994655 -0.064278841 1.166
-0.048036315 -0.064389102 1.1680001
-0.046110343 -0.064554483 1.171
-0.13663958 -0.063626066 1.192
-0.13365044 -0.063199043 1.184
-0.13124496 -0.063038915 1.1810001
-0.12884997 -0.062878788 1.1780001
-0.12646547 -0.062718645 1.1750001
-0.12409148 -0.062558517 1.1720001
-0.12162387 -0.062345009 1.1680001
-0.11937499 -0.062238246 1.166
-0.11723378 -0.06218487 1.1650001
-0.11489828 -0.062024739 1.1620001
-0.11267043 -0.061917983 1.1600001
-0.11054495 -0.061864607 1.159
-0.10832934 -0.061757851 1.1570001
-0.10612074 -0.061651092 1.1550001
-0.103829 -0.06149096 1.1520001
-0.10172452 -0.061437581 1.151
-0.099710181 -0.061437581 1.151
-0.097441189 -0.061277449 1.148
-0.095182717 -0.061117325 1.1450001
-0.092771977 -0.060850438 1.1400001
-0.0908565 -0.06090381 1.141
-0.088626012 -0.060743671 1.138
-0.08648216 -0.060636923 1.136
-0.084568448 -0.060690299 1.1370001
-0.082796492 -0.060850438 1.1400001
-0.080943152 -0.060957186 1.1420001
-0.078875422 -0.06090381 1.141
-0.076743819 -0.060797054 1.1390001
-0.074881732 -0.06090381 1.141
-0.073076516 -0.061063942 1.1440001
-0.071136557 -0.061117325 1.1450001
-0.069193088 -0.061170693 1.146
-0.067187488 -0.061170693 1.146
-0.065181889 -0.061170693 1.146
-0.063341677 -0.061330829 1.149
-0.061437581 -0.061437581 1.151
-0.059578124 -0.06159772 1.154
-0.057608403 -0.061651092 1.1550001
-0.055731438 -0.061811231 1.1580001
-0.053797591 -0.061917983 1.1600001
-0.051901374 -0.062078118 1.1630001
-0.049951781 -0.06218487 1.1650001
-0.047995187 -0.062291626 1.1670001
-0.046070967 -0.062451757 1.1700001
-0.044399638 -0.062985532 1.1800001
-0.13353756 -0.061075319 1.1830001
-0.13135608 -0.061023686 1.182
-0.12874056 -0.06076555 1.177
-0.12646547 -0.060662299 1.1750001
-0.12398559 -0.06045578 1.171
-0.12172799 -0.06035253 1.169
-0.11947738 -0.06024928 1.1670001
-0.11723378 -0.060146026 1.1650001
-0.11499716 -0.060042769 1.1630001
-0.11276755 -0.059939511 1.161
-0.11064033 -0.059887886 1.1600001
-0.10842298 -0.059784632 1.1580001
-0.10612074 -0.05962975 1.1550001
-0.103829 -0.059474863 1.1520001
-0.10172452 -0.059423238 1.151
-0.099796809 -0.059474863 1.1520001
-0.097526073 -0.05931998 1.149
-0.095348969 -0.059216727 1.1470001
-0.093097486 -0.059061844 1.1440001
-0.091015756 -0.059010219 1.143
-0.088937536 -0.058958594 1.1420001
-0.08671055 -0.058803707 1.1390001
-0.084717207 -0.058803707 1.1390001
-0.082723856 -0.058803707 1.1390001
-0.080801398 -0.05885534 1.1400001
-0.078806296 -0.05885534 1.1400001
-0.076811202 -0.05885534 1.1400001
-0.074881732 -0.058906961 1.141
-0.073012643 -0.059010219 1.143
-0.07119868 -0.059165098 1.146
-0.069132708 -0.059113476 1.1450001
-0.067070231 -0.059061844 1.1440001
-0.065181889 -0.059165098 1.146
-0.063286543 -0.059268355 1.148
-0.061437581 -0.059423238 1.151
-0.059578124 -0.059578124 1.154
-0.057708155 -0.059733 1.1570001
-0.055779561 -0.059836257 1.159
-0.053843968 -0.059939511 1.161
-0.051946003 -0.060094394 1.164
-0.049994655 -0.060197648 1.166
-0.048077438 -0.06035253 1.169
-0.046110343 -0.06045578 1.171
-0.044399638 -0.060920436 1.1800001
-0.13466635 -0.059503745 1.1930001
-0.13168947 -0.059104726 1.1850001
-0.12895933 -0.058805458 1.179
-0.12657309 -0.058655821 1.176
-0.12409148 -0.058456313 1.1720001
-0.12172799 -0.058306683 1.169
-0.11957976 -0.058256809 1.1680001
-0.11743503 -0.058206931 1.1670001
-0.11519492 -0.058107179 1.1650001
-0.11296183 -0.058007423 1.1630001
-0.11064033 -0.057857785 1.1600001
-0.10842298 -0.057758033 1.1580001
-0.10602885 -0.057558522 1.154
