# .PCD v0.7 - Point Cloud Data file format
VERSION 0.7
FIELDS x y z
SIZE 4 4 4
TYPE F F F
COUNT 1 1 1
WIDTH 1442
HEIGHT 1
VIEWPOINT 0 0 0 1 0 0 0
POINTS 1442
DATA ascii
-0.10150052 -0.13996387 1.2210001
-0.099770553 -0.14053701 1.2260001
-0.098023094 -0.14111017 1.2310001
-0.09656965 -0.14214185 1.24
-0.093638256 -0.14099553 1.23
-0.091188148 -0.14053701 1.2260001
-0.088824652 -0.14019313 1.223
-0.087463968 -0.14145407 1.2340001
-0.08392179 -0.13916145 1.2140001
-0.081662431 -0.13893218 1.212
-0.079016313 -0.13801515 1.2040001
-0.077739619 -0.13950534 1.217
-0.076044664 -0.14030775 1.2240001
-0.074264824 -0.14099553 1.23
-0.072581239 -0.14191259 1.238
-0.070812784 -0.14271499 1.245
-0.069019824 -0.14351742 1.2520001
-0.066615202 -0.1430589 1.248
-0.064482726 -0.14317352 1.2490001
-0.11798456 -0.1396331 1.2370001
-0.11610059 -0.13997175 1.24
-0.11402237 -0.14008462 1.2410001
-0.11194064 -0.14019752 1.2420001
-0.10932515 -0.1396331 1.2370001
-0.10655388 -0.13884293 1.23
-0.10431641 -0.13873006 1.2290001
-0.10191616 -0.13839142 1.2260001
-0.099851936 -0.13850431 1.2270001
-0.097624958 -0.13839142 1.2260001
-0.09571299 -0.13873006 1.2290001
-0.093105353 -0.13805278 1.223
-0.090518728 -0.13737549 1.217
-0.088316262 -0.13726261 1.2160001
-0.08625903 -0.13737549 1.217
-0.08378353 -0.13681109 1.212
-0.081190787 -0.13602093 1.205
-0.078885049 -0.13568228 1.202
-0.077420227 -0.13681109 1.212
-0.075734019 -0.13760126 1.2190001
-0.073902562 -0.13816565 1.2240001
-0.071877718 -0.13839142 1.2260001
-0.070244007 -0.13940734 1.235
-0.068303168 -0.13985886 1.2390001
-0.066188186 -0.13997175 1.24
-0.064224593 -0.14042327 1.2440001
-0.062197119 -0.14076191 1.2470001
-0.11985803 -0.13713486 1.2340001
-0.1177938 -0.13724598 1.235
-0.11610059 -0.13780163 1.24
-0.11448176 -0.13846841 1.2460001
-0.1121209 -0.13824616 1.2440001
-0.10959027 -0.13780163 1.24
-0.10707366 -0.13735713 1.2360001
-0.10465591 -0.13702372 1.233
-0.10233181 -0.13680147 1.2310001
-0.10009607 -0.13669033 1.23
-0.097943462 -0.13669033 1.23
-0.095635109 -0.13646808 1.228
-0.093029231 -0.13580129 1.222
-0.090593114 -0.13535677 1.2180001
-0.088388883 -0.13524564 1.217
-0.08625903 -0.13524564 1.217
-0.083852664 -0.13480112 1.2130001
-0.081864566 -0.13502339 1.215
-0.079344451 -0.1343566 1.2090001
-0.077420227 -0.13468997 1.212
-0.07542339 -0.13491225 1.2140001
-0.073781803 -0.13580129 1.222
-0.071877718 -0.13624582 1.2260001
-0.069788985 -0.13635695 1.2270001
-0.067862146 -0.13680147 1.2310001
-0.065921299 -0.13724598 1.235
-0.064018086 -0.13780163 1.24
-0.061897852 -0.13791277 1.2410001
-0.1226109 -0.13563153 1.24
-0.12014941 -0.13530339 1.2370001
-0.11769842 -0.13497525 1.2340001
-0.11563244 -0.13508463 1.235
-0.11365485 -0.13530339 1.2370001
-0.11139987 -0.135194 1.2360001
-0.10941352 -0.13541277 1.238
-0.10733355 -0.13552216 1.2390001
-0.10491055 -0.135194 1.2360001
-0.10241494 -0.13475651 1.2320001
-0.10009607 -0.13453773 1.23
-0.097863838 -0.13442835 1.2290001
-0.095557235 -0.1342096 1.2270001
-0.093029231 -0.13366269 1.222
-0.090667494 -0.13333456 1.2190001
-0.088316262 -0.13300641 1.2160001
-0.086117268 -0.13289702 1.215
-0.08412917 -0.13311578 1.217
-0.082134083 -0.13333456 1.2190001
-0.079738215 -0.13289702 1.215
-0.077356353 -0.13245951 1.2110001
-0.075050615 -0.13213137 1.2080001
-0.073479913 -0.13311578 1.217
-0.071525946 -0.13344392 1.22
-0.069447719 -0.13355331 1.2210001
-0.067421123 -0.13377206 1.223
-0.06554766 -0.13431896 1.228
-0.063553438 -0.13464712 1.2310001
-0.061698347 -0.13530339 1.2370001
-0.12684874 -0.1333538 1.2390001
-0.12468039 -0.1333538 1.2390001
-0.12251203 -0.1333538 1.2390001
-0.1204408 -0.13346143 1.24
-0.11788917 -0.13303092 1.2360001
-0.11544518 -0.13270803 1.233
-0.11328734 -0.13270803 1.233
-0.11094922 -0.13249277 1.2310001
-0.10888325 -0.1326004 1.2320001
-0.1069004 -0.13281566 1.2340001
-0.10457104 -0.1326004 1.2320001
-0.10216554 -0.1322775 1.2290001
-0.099689178 -0.13184698 1.225
-0.097704589 -0.13206224 1.2270001
-0.095401466 -0.13184698 1.225
-0.093029231 -0.13152409 1.222
-0.090667494 -0.13120119 1.2190001
-0.088388883 -0.13098593 1.217
-0.08618816 -0.1308783 1.2160001
-0.084198311 -0.13109356 1.2180001
-0.082268842 -0.13141645 1.2210001
-0.080000736 -0.13120119 1.2190001
-0.077420227 -0.13044778 1.212
-0.075050615 -0.13001727 1.2080001
-0.073238403 -0.13055541 1.2130001
-0.071291439 -0.1308783 1.2160001
-0.069390841 -0.13130882 1.22
-0.06731087 -0.13141645 1.2210001
-0.065227389 -0.13152409 1.222
-0.063243672 -0.13184698 1.225
-0.06124945 -0.13216987 1.228
-0.059581622 -0.13324617 1.238
-0.057415012 -0.13324617 1.238
-0.12745515 -0.12959725 1.2240001
-0.12562019 -0.12991488 1.2270001
-0.12427787 -0.13076192 1.235
-0.12191875 -0.13055016 1.233
-0.11995515 -0.13076192 1.235
-0.11741228 -0.1303384 1.2310001
-0.11516429 -0.13023251 1.23
-0.11255229 -0.12970312 1.225
-0.11031832 -0.12959725 1.2240001
-0.10817622 -0.12959725 1.2240001
-0.10603411 -0.12959725 1.2240001
-0.10380712 -0.12949136 1.223
-0.10150052 -0.12927961 1.2210001
-0.099119522 -0.12896197 1.2180001
-0.096987925 -0.12896197 1.2180001
-0.094778441 -0.12885608 1.217
-0.092648581 -0.12885608 1.217
-0.090444356 -0.12875021 1.2160001
-0.088243626 -0.12864432 1.215
-0.08597552 -0.12843257 1.2130001
-0.083990917 -0.12864432 1.215
-0.081864566 -0.12864432 1.215
-0.079869471 -0.12885608 1.217
-0.077356353 -0.1282208 1.2110001
-0.074988484 -0.12779728 1.207
-0.072996892 -0.12800905 1.2090001
-0.070998296 -0.1282208 1.2110001
-0.069163337 -0.12875021 1.2160001
-0.066924982 -0.12853844 1.2140001
-0.064960502 -0.12885608 1.217
-0.062933907 -0.12906784 1.2190001
-0.061049942 -0.12959725 1.2240001
-0.059389111 -0.13065605 1.2340001
-0.12959725 -0.12745515 1.2240001
-0.12672623 -0.12672623 1.217
-0.12510827 -0.12724687 1.222
-0.12427787 -0.12860057 1.235
-0.12181988 -0.12828819 1.2320001
-0.11976089 -0.12839231 1.233
-0.11703077 -0.12776753 1.2270001
-0.11497705 -0.12787166 1.228
-0.11236854 -0.127351 1.223
-0.11022818 -0.127351 1.223
-0.10782269 -0.12703863 1.22
-0.10560096 -0.12693448 1.2190001
-0.10338273 -0.12683035 1.2180001
-0.10125113 -0.12683035 1.2180001
-0.098956764 -0.1266221 1.2160001
-0.096828662 -0.1266221 1.2160001
-0.094544813 -0.12641385 1.2140001
-0.092344075 -0.12630971 1.2130001
-0.090221219 -0.12630971 1.2130001
-0.08809837 -0.12630971 1.2130001
-0.085904635 -0.12620556 1.212
-0.083852664 -0.12630971 1.2130001
-0.081729807 -0.12630971 1.2130001
-0.079738215 -0.12651797 1.215
-0.077420227 -0.12620556 1.212
-0.075236998 -0.12610145 1.2110001
-0.073178023 -0.12620556 1.212
-0.071056925 -0.12620556 1.212
-0.069106452 -0.12651797 1.215
-0.066980101 -0.12651797 1.215
-0.065067261 -0.12693448 1.2190001
-0.062933907 -0.12693448 1.2190001
-0.060900312 -0.12714276 1.2210001
-0.059100345 -0.12787166 1.228
-0.050791822 -0.12860057 1.235
-0.13076192 -0.1264392 1.235
-0.12787166 -0.12572256 1.228
-0.12551779 -0.12551779 1.2260001
-0.12387534 -0.1260297 1.2310001
-0.12122659 -0.12551779 1.2260001
-0.11917812 -0.12562019 1.2270001
-0.11645848 -0.1250059 1.2210001
-0.11441525 -0.12510827 1.222
-0.11190914 -0.12469876 1.2180001
-0.10977753 -0.12469876 1.2180001
-0.10738079 -0.12439161 1.215
-0.10516782 -0.12428924 1.2140001
-0.10278858 -0.1239821 1.2110001
-0.10066923 -0.1239821 1.2110001
-0.098549873 -0.1239821 1.2110001
-0.096350886 -0.12387972 1.21
-0.094155416 -0.12377734 1.2090001
-0.091963433 -0.12367497 1.2080001
-0.089774944 -0.12357258 1.207
-0.087735228 -0.12367497 1.2080001
-0.085550241 -0.12357258 1.207
-0.083507024 -0.12367497 1.2080001
-0.081392922 -0.12367497 1.2080001
-0.079410069 -0.12387972 1.21
-0.077164717 -0.12367497 1.2080001
-0.075050615 -0.12367497 1.2080001
-0.073057272 -0.12387972 1.21
-0.070998296 -0.1239821 1.2110001
-0.069106452 -0.12439161 1.215
-0.067090355 -0.12459638 1.217
-0.06512063 -0.12490351 1.22
-0.062830649 -0.12459638 1.217
-0.060650922 -0.12449399 1.2160001
-0.058619075 -0.12469876 1.2180001
-0.05695124 -0.12572256 1.228
-0.052738789 -0.12592731 1.23
-0.0502983 -0.12521066 1.223
-0.12613209 -0.12397597 1.2320001
-0.12377471 -0.12377471 1.23
-0.12112771 -0.12327155 1.225
-0.11898386 -0.12327155 1.225
-0.11636309 -0.12276841 1.22
-0.11404074 -0.12256715 1.2180001
-0.1116335 -0.12226526 1.215
-0.10950715 -0.12226526 1.215
-0.10720404 -0.12206401 1.2130001
-0.10499455 -0.12196337 1.212
-0.1027037 -0.12176212 1.21
-0.10066923 -0.12186275 1.2110001
-0.098468497 -0.12176212 1.21
-0.096350886 -0.12176212 1.21
-0.093999654 -0.12146023 1.207
-0.091887303 -0.12146023 1.207
-0.089626193 -0.12125897 1.205
-0.087589972 -0.12135961 1.2060001
-0.085408486 -0.12125897 1.205
-0.083437897 -0.12146023 1.207
-0.081325538 -0.12146023 1.207
-0.079278819 -0.12156086 1.2080001
-0.077164717 -0.12156086 1.2080001
-0.075112745 -0.1216615 1.2090001
-0.073117651 -0.12186275 1.2110001
-0.071056925 -0.12196337 1.212
-0.069106452 -0.12226526 1.215
-0.067145482 -0.12256715 1.2180001
-0.065174013 -0.12286904 1.2210001
-0.062985532 -0.12276841 1.22
-0.0607008 -0.12246652 1.217
-0.058619075 -0.12256715 1.2180001
-0.056626603 -0.12286904 1.2210001
-0.054936022 -0.12387534 1.2310001
-0.052695915 -0.12367408 1.2290001
-0.050462808 -0.12347282 1.2270001
-0.048551712 -0.1240766 1.233
-0.12901708 -0.12251203 1.2390001
-0.12582494 -0.12152324 1.2290001
-0.12337219 -0.12122659 1.2260001
-0.12073219 -0.12073219 1.2210001
-0.11859534 -0.12073219 1.2210001
-0.11607696 -0.12033666 1.217
-0.11347897 -0.11984228 1.212
-0.11117411 -0.11964452 1.21
-0.1090565 -0.11964452 1.21
-0.1069389 -0.11964452 1.21
-0.10456141 -0.11934788 1.207
-0.10219443 -0.11905125 1.2040001
-0.10017045 -0.11915012 1.205
-0.098061599 -0.11915012 1.205
-0.095952749 -0.11915012 1.205
-0.093688145 -0.11895236 1.2030001
-0.09150666 -0.11885347 1.202
-0.089328676 -0.1187546 1.2010001
-0.087372087 -0.11895236 1.2030001
-0.085195847 -0.11885347 1.202
-0.083161376 -0.11895236 1.2030001
-0.080988646 -0.11885347 1.202
-0.078885049 -0.11885347 1.202
-0.076781444 -0.11885347 1.202
-0.07473997 -0.11895236 1.2030001
-0.072876133 -0.11934788 1.207
-0.070881039 -0.11954565 1.2090001
-0.068935819 -0.11984228 1.212
-0.066924982 -0.12004003 1.2140001
-0.064907126 -0.12023779 1.2160001
-0.062933907 -0.12053443 1.2190001
-0.060750674 -0.12043555 1.2180001
-0.058474693 -0.12013891 1.215
-0.056255583 -0.11994115 1.2130001
-0.054311238 -0.12033666 1.217
-0.052867424 -0.12191875 1.233
-0.050668444 -0.12181988 1.2320001
-0.048079193 -0.12073219 1.2210001
-0.04639386 -0.12191875 1.233
-0.13107955 -0.12024654 1.238
-0.12901708 -0.12034367 1.2390001
-0.12613209 -0.11966377 1.2320001
-0.12337219 -0.11908099 1.2260001
-0.1206333 -0.1184982 1.22
-0.1181097 -0.1181097 1.2160001
-0.11579083 -0.11791544 1.2140001
-0.1132917 -0.1175269 1.21
-0.11117411 -0.1175269 1.21
-0.10896637 -0.11742978 1.2090001
-0.10676214 -0.11733266 1.2080001
-0.10438816 -0.11704126 1.205
-0.10219443 -0.11694414 1.2040001
-0.10017045 -0.11704126 1.205
-0.098061599 -0.11704126 1.205
-0.095952749 -0.11704126 1.205
-0.093688145 -0.116847 1.2030001
-0.09143053 -0.11665274 1.2010001
-0.089254305 -0.11655562 1.2
-0.08722683 -0.11665274 1.2010001
-0.085195847 -0.11674987 1.202
-0.08309225 -0.11674987 1.202
-0.080988646 -0.11674987 1.202
-0.078885049 -0.11674987 1.202
-0.076845333 -0.116847 1.2030001
-0.074802108 -0.11694414 1.2040001
-0.072876133 -0.11723552 1.207
-0.070881039 -0.11742978 1.2090001
-0.068935819 -0.11772116 1.212
-0.066924982 -0.11791544 1.2140001
-0.064960502 -0.11820682 1.217
-0.063037157 -0.11859534 1.2210001
-0.061000068 -0.1187896 1.223
-0.058619075 -0.11830395 1.2180001
-0.056441091 -0.11820682 1.217
-0.054445121 -0.1184982 1.22
-0.053038932 -0.12014941 1.2370001
-0.050545063 -0.11937238 1.2290001
-0.048276074 -0.11908099 1.2260001
-0.1309737 -0.11798456 1.2370001
-0.12839231 -0.11760303 1.233
-0.12562019 -0.11703077 1.2270001
-0.12296966 -0.11655386 1.222
-0.12023779 -0.11598159 1.2160001
-0.11772116 -0.11560006 1.212
-0.11531393 -0.11531393 1.2090001
-0.11301082 -0.11512317 1.207
-0.11080659 -0.11502779 1.2060001
-0.10851573 -0.11483704 1.2040001
-0.10632025 -0.11474166 1.2030001
-0.10404164 -0.1145509 1.2010001
-0.10177002 -0.11436012 1.199
-0.09975481 -0.11445551 1.2
-0.097654708 -0.11445551 1.2
-0.095554605 -0.11445551 1.2
-0.093376614 -0.11436012 1.199
-0.09112601 -0.11416937 1.197
-0.08903116 -0.11416937 1.197
-0.087008946 -0.11426475 1.1980001
-0.084912345 -0.11426475 1.1980001
-0.082815744 -0.11426475 1.1980001
-0.080719136 -0.11426475 1.1980001
-0.078753792 -0.11445551 1.2
-0.07671757 -0.1145509 1.2010001
-0.074615717 -0.1145509 1.2010001
-0.072574243 -0.11464627 1.202
-0.070646524 -0.11493241 1.205
-0.068765193 -0.11531393 1.2090001
-0.066814721 -0.11560006 1.212
-0.064746991 -0.11569545 1.2130001
-0.062727399 -0.1158862 1.215
-0.060650922 -0.11598159 1.2160001
-0.058378439 -0.11569545 1.2130001
-0.056255583 -0.11569545 1.2130001
-0.054221984 -0.1158862 1.215
-0.052395768 -0.11655386 1.222
-0.05038055 -0.11684 1.225
-0.048197325 -0.11674463 1.2240001
-0.046619624 -0.11817532 1.2390001
-0.044128373 -0.1173169 1.23
-0.042214658 -0.11798456 1.2370001
-0.13346143 -0.11610059 1.24
-0.13076192 -0.11563244 1.235
-0.12818405 -0.11525793 1.2310001
-0.12551779 -0.11478978 1.2260001
-0.12296966 -0.11441525 1.222
-0.12023779 -0.11385349 1.2160001
-0.11772116 -0.11347897 1.212
-0.11531393 -0.11319808 1.2090001
-0.11291719 -0.11291719 1.2060001
-0.11062284 -0.11272994 1.2040001
-0.10833547 -0.11254267 1.202
-0.10623186 -0.11254267 1.202
-0.10404164 -0.11244904 1.2010001
-0.10177002 -0.11226178 1.199
-0.099671669 -0.11226178 1.199
-0.097573325 -0.11226178 1.199
-0.095395349 -0.11216816 1.1980001
-0.093220867 -0.11207452 1.197
-0.091049887 -0.11198089 1.1960001
-0.08903116 -0.11207452 1.197
-0.08693631 -0.11207452 1.197
-0.08484146 -0.11207452 1.197
-0.08274661 -0.11207452 1.197
-0.080719136 -0.11216816 1.1980001
-0.078819424 -0.11244904 1.2010001
-0.076845333 -0.11263631 1.2030001
-0.07473997 -0.11263631 1.2030001
-0.072634622 -0.11263631 1.2030001
-0.07070516 -0.11291719 1.2060001
-0.068765193 -0.11319808 1.2090001
-0.066759594 -0.11338534 1.2110001
-0.064640239 -0.11338534 1.2110001
-0.062520891 -0.11338534 1.2110001
-0.060501292 -0.11357259 1.2130001
-0.058474693 -0.11375985 1.215
-0.056255583 -0.11357259 1.2130001
-0.054177362 -0.11366623 1.2140001
-0.052095633 -0.11375985 1.215
-0.0502983 -0.11450889 1.223
-0.048315454 -0.11488342 1.2270001
-0.046318606 -0.11525793 1.2310001
-0.044343635 -0.11572608 1.2360001
-0.13313855 -0.11365485 1.2370001
-0.1303384 -0.11310358 1.2310001
-0.12745515 -0.11246042 1.2240001
-0.12469876 -0.11190914 1.2180001
-0.1223659 -0.11172538 1.2160001
-0.11984228 -0.11135786 1.212
-0.11762404 -0.11126599 1.2110001
-0.11521856 -0.11099035 1.2080001
-0.11272994 -0.11062284 1.2040001
-0.11025532 -0.11025532 1.2
-0.10797495 -0.11007155 1.1980001
-0.10596672 -0.11016342 1.199
-0.10378175 -0.11007155 1.1980001
-0.10160027 -0.10997967 1.197
-0.099422291 -0.10988779 1.1960001
-0.097247809 -0.10979591 1.1950001
-0.095076822 -0.10970403 1.194
-0.092909351 -0.10961216 1.1930001
-0.090745367 -0.10952027 1.192
-0.088808022 -0.10970403 1.194
-0.086718418 -0.10970403 1.194
-0.084699705 -0.10979591 1.1950001
-0.082539223 -0.10970403 1.194
-0.080517009 -0.10979591 1.1950001
-0.07855691 -0.10997967 1.197
-0.076525934 -0.11007155 1.1980001
-0.074491456 -0.11016342 1.199
-0.072453491 -0.11025532 1.2
-0.070529275 -0.11053095 1.2030001
-0.068537675 -0.1107147 1.205
-0.066539079 -0.11089846 1.207
-0.064373352 -0.11080659 1.2060001
-0.062314373 -0.11089846 1.207
-0.060202025 -0.11089846 1.207
-0.058330309 -0.11135786 1.212
-0.056023698 -0.11099035 1.2080001
-0.053864967 -0.11089846 1.207
-0.051752616 -0.11089846 1.207
-0.050010409 -0.11172538 1.2160001
-0.047882307 -0.11172538 1.2160001
-0.045754205 -0.11172538 1.2160001
-0.043948993 -0.11255229 1.225
-0.13281566 -0.11121961 1.2340001
-0.13012666 -0.11076896 1.2290001
-0.127351 -0.11022818 1.223
-0.12469876 -0.10977753 1.2180001
-0.12216464 -0.10941702 1.2140001
-0.11994115 -0.10932689 1.2130001
-0.1178183 -0.10932689 1.2130001
-0.11540931 -0.1090565 1.21
-0.11282355 -0.10860585 1.205
-0.11043906 -0.10833547 1.202
-0.10815521 -0.10815521 1.2
-0.10596672 -0.10806508 1.199
-0.10378175 -0.10797495 1.1980001
-0.10160027 -0.10788482 1.197
-0.099505417 -0.10788482 1.197
-0.09749195 -0.10797495 1.1980001
-0.095315717 -0.10788482 1.197
-0.093065105 -0.10770456 1.1950001
-0.090745367 -0.10743417 1.192
-0.088808022 -0.10761443 1.194
-0.086718418 -0.10761443 1.194
-0.084699705 -0.10770456 1.1950001
-0.082608357 -0.10770456 1.1950001
-0.080651753 -0.10788482 1.197
-0.07855691 -0.10788482 1.197
-0.076525934 -0.10797495 1.1980001
-0.074491456 -0.10806508 1.199
-0.072453491 -0.10815521 1.2
-0.070587903 -0.10851573 1.2040001
-0.068537675 -0.10860585 1.205
-0.066539079 -0.10878611 1.207
-0.064373352 -0.10869599 1.2060001
-0.062366005 -0.10887624 1.2080001
-0.060301784 -0.10896637 1.2090001
-0.058378439 -0.10932689 1.2130001
-0.056023698 -0.10887624 1.2080001
-0.053909596 -0.10887624 1.2080001
-0.051795494 -0.10887624 1.2080001
-0.049969282 -0.10950715 1.215
-0.047724798 -0.10923675 1.212
-0.045566071 -0.10914663 1.2110001
-0.043841362 -0.11013805 1.222
-0.042282913 -0.11167026 1.2390001
-0.13541277 -0.10941352 1.238
-0.1326004 -0.10888325 1.2320001
-0.13012666 -0.10861811 1.2290001
-0.127351 -0.10808783 1.223
-0.12459638 -0.10755755 1.217
-0.12186275 -0.10702728 1.2110001
-0.11954565 -0.10685053 1.2090001
-0.11723552 -0.10667376 1.207
-0.11502779 -0.10658538 1.2060001
-0.11254267 -0.10623186 1.202
-0.1103472 -0.10614349 1.2010001
-0.10797495 -0.10587835 1.1980001
-0.10578997 -0.10578997 1.197
-0.10343523 -0.10552483 1.194
-0.10134563 -0.10552483 1.194
-0.099339157 -0.10561322 1.1950001
-0.09741056 -0.10578997 1.197
-0.095156454 -0.10561322 1.1950001
-0.092909351 -0.10543646 1.1930001
-0.090593114 -0.10517132 1.1900001
-0.088510513 -0.10517132 1.1900001
-0.086427912 -0.10517132 1.1900001
-0.084487066 -0.10534807 1.192
-0.082470104 -0.10543646 1.1930001
-0.080449626 -0.10552483 1.194
-0.078360021 -0.10552483 1.194
-0.076270424 -0.10552483 1.194
-0.074367203 -0.10578997 1.197
-0.072332732 -0.10587835 1.1980001
-0.070353389 -0.10605511 1.2
-0.068196408 -0.10596672 1.199
-0.066263437 -0.10623186 1.202
-0.064213216 -0.10632025 1.2030001
-0.062211119 -0.106497 1.205
-0.060152147 -0.10658538 1.2060001
-0.058282182 -0.10702728 1.2110001
-0.056023698 -0.10676214 1.2080001
-0.053864967 -0.10667376 1.207
-0.051709745 -0.10658538 1.2060001
-0.049763646 -0.1069389 1.21
-0.047646042 -0.1069389 1.21
-0.045528442 -0.1069389 1.21
-0.043590225 -0.10738079 1.215
-0.041873395 -0.10844135 1.2270001
-0.040114559 -0.1095019 1.2390001
-0.13486587 -0.10681377 1.233
-0.1322775 -0.10646725 1.2290001
-0.12991488 -0.10629401 1.2270001
-0.127351 -0.10594748 1.223
-0.12480114 -0.10560096 1.2190001
-0.12206401 -0.10508119 1.2130001
-0.11954565 -0.10473467 1.2090001
-0.1171384 -0.10447479 1.2060001
-0.11483704 -0.10430153 1.2040001
-0.11244904 -0.10404164 1.2010001
-0.11025532 -0.10395501 1.2
-0.10797495 -0.10378175 1.1980001
-0.10578997 -0.10369512 1.197
-0.10343523 -0.10343523 1.194
-0.10143051 -0.10352186 1.1950001
-0.099339157 -0.10352186 1.1950001
-0.097329192 -0.10360849 1.1960001
-0.095156454 -0.10352186 1.1950001
-0.092909351 -0.10334861 1.1930001
-0.090669252 -0.10317535 1.1910001
-0.088510513 -0.10308871 1.1900001
-0.086500548 -0.10317535 1.1910001
-0.084345318 -0.10308871 1.1900001
-0.082331844 -0.10317535 1.1910001
-0.08038225 -0.10334861 1.1930001
-0.078360021 -0.10343523 1.194
-0.076334298 -0.10352186 1.1950001
-0.07430508 -0.10360849 1.1960001
-0.072393112 -0.10386837 1.199
-0.07029476 -0.10386837 1.199
-0.068253286 -0.10395501 1.2
-0.066263437 -0.10412826 1.202
-0.064319976 -0.10438816 1.205
-0.062262751 -0.10447479 1.2060001
-0.060251903 -0.10464804 1.2080001
-0.058234055 -0.10482129 1.21
-0.056255583 -0.10508119 1.2130001
-0.053909596 -0.10464804 1.2080001
-0.051838376 -0.10473467 1.2090001
-0.049804773 -0.10490793 1.2110001
-0.04796106 -0.10551433 1.2180001
-0.045754205 -0.10534108 1.2160001
-0.043733735 -0.10560096 1.2190001
-0.041839264 -0.10620737 1.2260001
-0.039887924 -0.10672715 1.2320001
-0.037915576 -0.10724691 1.238
-0.13475651 -0.10457104 1.2320001
-0.13216987 -0.10423152 1.228
-0.12970312 -0.10397688 1.225
-0.12724687 -0.10372224 1.222
-0.12449399 -0.10321297 1.2160001
-0.12186275 -0.10278858 1.2110001
-0.119249 -0.10236418 1.2060001
-0.116847 -0.10210954 1.2030001
-0.11436012 -0.10177002 1.199
-0.11198089 -0.10151539 1.1960001
-0.10988779 -0.10151539 1.1960001
-0.10770456 -0.10143051 1.1950001
-0.10552483 -0.10134563 1.194
-0.10326197 -0.10117587 1.192
-0.10117587 -0.10117587 1.192
-0.099172905 -0.10126076 1.1930001
-0.097003669 -0.10117587 1.192
-0.094917566 -0.10117587 1.192
-0.092597827 -0.10092123 1.189
-0.090440862 -0.10083636 1.1880001
-0.088287376 -0.10075147 1.187
-0.086282656 -0.10083636 1.1880001
-0.084203556 -0.10083636 1.1880001
-0.082124457 -0.10083636 1.1880001
-0.080112733 -0.10092123 1.189
-0.07816314 -0.101091 1.1910001
-0.076142661 -0.10117587 1.192
-0.074118696 -0.10126076 1.1930001
-0.072151601 -0.10143051 1.1950001
-0.070060246 -0.10143051 1.1950001
-0.068025775 -0.10151539 1.1960001
-0.066042937 -0.10168515 1.1980001
-0.064106472 -0.10193979 1.2010001
-0.062107868 -0.10210954 1.2030001
-0.060102273 -0.1022793 1.205
-0.058089674 -0.10244906 1.207
-0.056162834 -0.10278858 1.2110001
-0.053864967 -0.10244906 1.207
-0.051838376 -0.10261882 1.2090001
-0.049722522 -0.10261882 1.2090001
-0.048118569 -0.10372224 1.222
-0.045791831 -0.10329785 1.217
-0.043805487 -0.10363737 1.2210001
-0.041873395 -0.10414664 1.2270001
-0.039952677 -0.1047408 1.2340001
-0.037854325 -0.10491055 1.2360001
-0.13475651 -0.10241494 1.2320001
-0.13206224 -0.10199929 1.2270001
-0.12949136 -0.10166677 1.223
-0.12693448 -0.10133426 1.2190001
-0.12428924 -0.10091861 1.2140001
-0.1216615 -0.10050297 1.2090001
-0.11934788 -0.10033671 1.207
-0.11694414 -0.10008733 1.2040001
-0.1145509 -0.099837936 1.2010001
-0.11207452 -0.099505417 1.197
-0.10988779 -0.099422291 1.1960001
-0.10770456 -0.099339157 1.1950001
-0.10543646 -0.099172905 1.1930001
-0.10343523 -0.099256024 1.194
-0.10134563 -0.099256024 1.194
-0.099256024 -0.099256024 1.194
-0.097003669 -0.099089772 1.192
-0.094758317 -0.098923512 1.1900001
-0.092519961 -0.09875726 1.1880001
-0.090440862 -0.09875726 1.1880001
-0.088287376 -0.098674133 1.187
-0.086210027 -0.098674133 1.187
-0.084132679 -0.098674133 1.187
-0.082124457 -0.09875726 1.1880001
-0.080112733 -0.098840386 1.189
-0.078228764 -0.099089772 1.192
-0.07620655 -0.099172905 1.1930001
-0.074180819 -0.099256024 1.194
-0.072151601 -0.099339157 1.1950001
-0.070236139 -0.099588551 1.1980001
-0.068196408 -0.099671669 1.199
-0.066153191 -0.09975481 1.2
-0.064213216 -0.10000419 1.2030001
-0.062211119 -0.10017045 1.205
-0.060102273 -0.10017045 1.205
-0.057993416 -0.10017045 1.205
-0.056116454 -0.10058609 1.21
-0.053909596 -0.10041984 1.2080001
-0.051967002 -0.10075235 1.212
-0.049722522 -0.10050297 1.2090001
-0.048276074 -0.10191616 1.2260001
-0.046130471 -0.10191616 1.2260001
-0.04420013 -0.10241494 1.2320001
-0.042180531 -0.10274745 1.2360001
-0.040179312 -0.10316309 1.2410001
-0.13508463 -0.10050297 1.235
-0.13206224 -0.099851936 1.2270001
-0.12917373 -0.09928228 1.22
-0.12651797 -0.098875389 1.215
-0.1239821 -0.098549873 1.2110001
-0.12135961 -0.098142974 1.2060001
-0.11915012 -0.098061599 1.205
-0.11674987 -0.097817458 1.202
-0.11436012 -0.097573325 1.199
-0.11188726 -0.097247809 1.1950001
-0.10961216 -0.097085051 1.1930001
-0.10743417 -0.097003669 1.192
-0.10525969 -0.096922293 1.1910001
-0.10317535 -0.096922293 1.1910001
-0.101091 -0.096922293 1.1910001
-0.099006653 -0.096922293 1.1910001
-0.096759535 -0.096759535 1.189
-0.094599061 -0.09667816 1.1880001
-0.092364199 -0.096515402 1.1860001
-0.090212472 -0.096434027 1.1850001
-0.088138625 -0.096434027 1.1850001
-0.086064771 -0.096434027 1.1850001
-0.083990924 -0.096434027 1.1850001
-0.08191707 -0.096434027 1.1850001
-0.079910599 -0.096515402 1.1860001
-0.078031883 -0.096759535 1.189
-0.076014914 -0.096840918 1.1900001
-0.074056566 -0.097003669 1.192
-0.07203085 -0.097085051 1.1930001
-0.070001617 -0.097166426 1.194
-0.068025775 -0.097329192 1.1960001
-0.065932676 -0.097329192 1.1960001
-0.063999705 -0.097573325 1.199
-0.061952986 -0.097654708 1.2
-0.059952635 -0.097817458 1.202
-0.057945296 -0.097980224 1.2040001
-0.056023698 -0.098305739 1.2080001
-0.053864967 -0.098224349 1.207
-0.051795494 -0.098305739 1.2080001
-0.049599141 -0.098142974 1.2060001
-0.048039813 -0.09928228 1.22
-0.046205726 -0.099933311 1.228
-0.044236004 -0.10034021 1.233
-0.042146403 -0.10050297 1.235
-0.040146932 -0.10090986 1.24
-0.13184698 -0.097545318 1.225
-0.12864432 -0.09674903 1.215
-0.12610145 -0.096430518 1.2110001
-0.12387972 -0.096350886 1.21
-0.12146023 -0.096111998 1.207
-0.119249 -0.096032381 1.2060001
-0.116847 -0.095793493 1.2030001
-0.11445551 -0.095554605 1.2
-0.11207452 -0.095315717 1.197
-0.10979591 -0.095156454 1.1950001
-0.10752431 -0.094997197 1.1930001
-0.10525969 -0.094837949 1.1910001
-0.10317535 -0.094837949 1.1910001
-0.101091 -0.094837949 1.1910001
-0.099089772 -0.094917566 1.192
-0.096759535 -0.094678678 1.189
-0.094599061 -0.094599061 1.1880001
-0.09244208 -0.094519429 1.187
-0.090364724 -0.094519429 1.187
-0.088361755 -0.094599061 1.1880001
-0.086210027 -0.094519429 1.187
-0.083990924 -0.094360173 1.1850001
-0.081778817 -0.094200917 1.1830001
-0.079708464 -0.094200917 1.1830001
-0.077835001 -0.094439805 1.1860001
-0.075951025 -0.094678678 1.189
-0.073994443 -0.094837949 1.1910001
-0.07203085 -0.094997197 1.1930001
-0.070060246 -0.095156454 1.1950001
-0.068139531 -0.095395349 1.1980001
-0.066042937 -0.095395349 1.1980001
-0.064053088 -0.095554605 1.2
-0.062004618 -0.095634237 1.2010001
-0.060052395 -0.095873125 1.2040001
-0.058041546 -0.096032381 1.2060001
-0.056070078 -0.096271269 1.2090001
-0.053954225 -0.096271269 1.2090001
-0.051838376 -0.096271269 1.2090001
-0.049640264 -0.096111998 1.207
-0.047803555 -0.096669406 1.2140001
-0.046092842 -0.097545318 1.225
-0.043984868 -0.097624958 1.2260001
-0.04211228 -0.098261982 1.2340001
-0.039920297 -0.09818235 1.233
-0.03779307 -0.098261982 1.2340001
-0.13464712 -0.095868744 1.2310001
-0.13141645 -0.095089957 1.2210001
-0.12811492 -0.094233289 1.21
-0.12568492 -0.093999654 1.207
-0.12336782 -0.093843892 1.205
-0.12125897 -0.093843892 1.205
-0.11895236 -0.093688145 1.2030001
-0.11655562 -0.093454503 1.2
-0.11426475 -0.093298748 1.1980001
-0.11188726 -0.093065105 1.1950001
-0.10961216 -0.092909351 1.1930001
-0.10734405 -0.092753597 1.1910001
-0.10508294 -0.092597827 1.189
-0.10300208 -0.092597827 1.189
-0.10100612 -0.092675716 1.1900001
-0.098923512 -0.092675716 1.1900001
-0.09667816 -0.092519961 1.1880001
-0.094519429 -0.09244208 1.187
-0.092364199 -0.092364199 1.1860001
-0.090364724 -0.09244208 1.187
-0.088361755 -0.092519961 1.1880001
-0.086282656 -0.092519961 1.1880001
-0.083990924 -0.092286319 1.1850001
-0.08170969 -0.092052683 1.182
-0.079573713 -0.09197481 1.1810001
-0.077638119 -0.092130564 1.1830001
-0.075695522 -0.092286319 1.1850001
-0.073683806 -0.092364199 1.1860001
-0.07172896 -0.092519961 1.1880001
-0.069708481 -0.092597827 1.189
-0.067855142 -0.092909351 1.1930001
-0.065822415 -0.092987224 1.194
-0.063892946 -0.093220867 1.197
-0.061901353 -0.093376614 1.199
-0.060002517 -0.093688145 1.2030001
-0.058041546 -0.093921773 1.2060001
-0.056070078 -0.094155416 1.2090001
-0.05399885 -0.094233289 1.21
-0.051752616 -0.093999654 1.207
-0.049640264 -0.093999654 1.207
-0.047606673 -0.094155416 1.2090001
-0.045791831 -0.094778441 1.217
-0.043518472 -0.094466932 1.2130001
-0.04139562 -0.094466932 1.2130001
-0.039564155 -0.095167831 1.222
-0.037731819 -0.095946625 1.2320001
-0.13442835 -0.093562134 1.2290001
-0.13120119 -0.092800848 1.2190001
-0.12832668 -0.092267938 1.212
-0.12578906 -0.091963433 1.2080001
-0.12347019 -0.091811173 1.2060001
-0.12115834 -0.09165892 1.2040001
-0.11885347 -0.09150666 1.202
-0.11655562 -0.0913544 1.2
-0.11445551 -0.0913544 1.2
-0.11226178 -0.09127827 1.199
-0.10997967 -0.09112601 1.197
-0.10752431 -0.090821505 1.1930001
-0.10525969 -0.090669252 1.1910001
-0.10326197 -0.090745367 1.192
-0.10126076 -0.090821505 1.1930001
-0.099172905 -0.090821505 1.1930001
-0.096922293 -0.090669252 1.1910001
-0.094599061 -0.090440862 1.1880001
-0.09244208 -0.090364724 1.187
-0.090364724 -0.090364724 1.187
-0.088361755 -0.090440862 1.1880001
-0.086282656 -0.090440862 1.1880001
-0.084061801 -0.090288602 1.1860001
-0.081847943 -0.090136342 1.184
-0.079641081 -0.089984089 1.182
-0.077638119 -0.090060212 1.1830001
-0.075695522 -0.090212472 1.1850001
-0.073621668 -0.090212472 1.1850001
-0.071608201 -0.090288602 1.1860001
-0.06964986 -0.090440862 1.1880001
-0.067798264 -0.090745367 1.192
-0.065877549 -0.090973757 1.1950001
-0.063946329 -0.091202147 1.1980001
-0.062056236 -0.09150666 1.202
-0.060052395 -0.09165892 1.2040001
-0.058137801 -0.091963433 1.2080001
-0.056116454 -0.092115685 1.21
-0.054177362 -0.092420205 1.2140001
-0.051838376 -0.092039563 1.2090001
-0.049804773 -0.092191823 1.2110001
-0.047646042 -0.092115685 1.21
-0.045904711 -0.092876971 1.22
-0.043339089 -0.091963433 1.2080001
-0.041156735 -0.091811173 1.2060001
-0.039402269 -0.092648581 1.217
-0.1342096 -0.091262527 1.2270001
-0.13098593 -0.090518728 1.217
-0.1282208 -0.090072468 1.2110001
-0.12568492 -0.089774944 1.207
-0.12316306 -0.089477435 1.2030001
-0.12085645 -0.089328676 1.2010001
-0.11855683 -0.089179918 1.199
-0.11645848 -0.089179918 1.199
-0.11445551 -0.089254305 1.2
-0.11207452 -0.08903116 1.197
-0.10979591 -0.088882409 1.1950001
-0.10743417 -0.088659264 1.192
-0.10534807 -0.088659264 1.192
-0.10326197 -0.088659264 1.192
-0.10117587 -0.088659264 1.192
-0.098923512 -0.088510513 1.1900001
-0.096840918 -0.088510513 1.1900001
-0.094519429 -0.088287376 1.187
-0.09244208 -0.088287376 1.187
-0.090212472 -0.088138625 1.1850001
-0.088213004 -0.088213004 1.1860001
-0.086137407 -0.088213004 1.1860001
-0.083990924 -0.088138625 1.1850001
-0.081778817 -0.087989867 1.1830001
-0.079641081 -0.08791548 1.182
-0.077572487 -0.08791548 1.182
-0.075631641 -0.088064238 1.184
-0.073497415 -0.087989867 1.1830001
-0.071487442 -0.088064238 1.184
-0.069473974 -0.088138625 1.1850001
-0.067684516 -0.088510513 1.1900001
-0.065767296 -0.088733651 1.1930001
-0.063839577 -0.088956788 1.1960001
-0.061952986 -0.089254305 1.2
-0.059952635 -0.089403048 1.202
-0.058041546 -0.089700572 1.2060001
-0.055977318 -0.089774944 1.207
-0.054043479 -0.090072468 1.2110001
-0.051752616 -0.089774944 1.207
-0.049681395 -0.08984933 1.2080001
-0.047567293 -0.08984933 1.2080001
-0.045791831 -0.090518728 1.217
-0.043374967 -0.08992371 1.2090001
-0.041327368 -0.090072468 1.2110001
-0.039693665 -0.091188148 1.2260001
-0.13442835 -0.089260422 1.2290001
-0.13098593 -0.088388883 1.217
-0.12832668 -0.088025734 1.212
-0.12568492 -0.087662593 1.207
-0.12326545 -0.087444715 1.2040001
-0.12085645 -0.08722683 1.2010001
-0.11865572 -0.087154202 1.2
-0.11665274 -0.08722683 1.2010001
-0.11464627 -0.087299451 1.202
-0.11244904 -0.08722683 1.2010001
-0.10997967 -0.08693631 1.197
-0.10779469 -0.086863682 1.1960001
-0.10561322 -0.086791053 1.1950001
-0.10352186 -0.086791053 1.1950001
-0.10117587 -0.086573169 1.192
-0.098923512 -0.086427912 1.1900001
-0.096840918 -0.086427912 1.1900001
-0.094758317 -0.086427912 1.1900001
-0.092675716 -0.086427912 1.1900001
-0.090440862 -0.086282656 1.1880001
-0.088287376 -0.086210027 1.187
-0.086137407 -0.086137407 1.1860001
-0.084061801 -0.086137407 1.1860001
-0.081847943 -0.085992143 1.184
-0.079708464 -0.085919522 1.1830001
-0.077638119 -0.085919522 1.1830001
-0.075695522 -0.086064771 1.1850001
-0.073621668 -0.086064771 1.1850001
-0.071668573 -0.086210027 1.187
-0.06964986 -0.086282656 1.1880001
-0.067684516 -0.086427912 1.1900001
-0.065767296 -0.086645797 1.1930001
-0.063839577 -0.086863682 1.1960001
-0.062004618 -0.08722683 1.2010001
-0.060002517 -0.087372087 1.2030001
-0.058041546 -0.087589972 1.2060001
-0.055977318 -0.087662593 1.207
-0.054088105 -0.088025734 1.212
-0.051795494 -0.087735228 1.2080001
-0.049722522 -0.087807857 1.2090001
-0.047567293 -0.087735228 1.2080001
-0.045867085 -0.088534147 1.2190001
-0.043877237 -0.088824652 1.223
-0.042009898 -0.089405678 1.2310001
-0.13399082 -0.086826049 1.225
-0.1308783 -0.08618816 1.2160001
-0.12832668 -0.085904635 1.212
-0.1255808 -0.085479371 1.2060001
-0.12336782 -0.085408486 1.205
-0.12095707 -0.085195847 1.202
-0.1187546 -0.085124977 1.2010001
-0.11645848 -0.084983215 1.199
-0.11445551 -0.0850541 1.2
-0.11207452 -0.08484146 1.197
-0.10979591 -0.084699705 1.1950001
-0.10770456 -0.084699705 1.1950001
-0.10552483 -0.08462882 1.194
-0.10334861 -0.08455795 1.1930001
-0.10092123 -0.084274426 1.189
-0.09875726 -0.084203556 1.1880001
-0.09667816 -0.084203556 1.1880001
-0.094678678 -0.084274426 1.189
-0.092597827 -0.084274426 1.189
-0.090440862 -0.084203556 1.1880001
-0.088361755 -0.084203556 1.1880001
-0.086355284 -0.084274426 1.189
-0.083282135 -0.083282135 1.1750001
-0.081018403 -0.083069503 1.1720001
-0.07889992 -0.082998618 1.171
-0.077309974 -0.083494775 1.1780001
-0.075695522 -0.083990924 1.1850001
-0.073683806 -0.084061801 1.1860001
-0.07172896 -0.084203556 1.1880001
-0.06964986 -0.084203556 1.1880001
-0.067684516 -0.084345318 1.1900001
-0.065601908 -0.084345318 1.1900001
-0.063626066 -0.084487066 1.192
-0.061746474 -0.084770583 1.1960001
-0.059803005 -0.084983215 1.199
-0.057800915 -0.085124977 1.2010001
-0.055884566 -0.085408486 1.205
-0.053909596 -0.085621126 1.2080001
-0.051795494 -0.085621126 1.2080001
-0.049599141 -0.085479371 1.2060001
-0.04748854 -0.085479371 1.2060001
-0.045791831 -0.08625903 1.217
-0.13388145 -0.084613077 1.2240001
-0.13109356 -0.084198311 1.2180001
-0.12843257 -0.083852664 1.2130001
-0.12599732 -0.083645277 1.21
-0.1239821 -0.083714411 1.2110001
-0.12135961 -0.083368771 1.2060001
-0.11895236 -0.083161376 1.2030001
-0.11645848 -0.082884863 1.199
-0.11436012 -0.082884863 1.199
-0.11207452 -0.08274661 1.197
-0.10997967 -0.08274661 1.197
-0.10779469 -0.082677484 1.1960001
-0.1057016 -0.082677484 1.1960001
-0.10343523 -0.082539223 1.194
-0.101091 -0.082331844 1.1910001
-0.098923512 -0.08226271 1.1900001
-0.096759535 -0.082193583 1.189
-0.094758317 -0.08226271 1.1900001
-0.092597827 -0.082193583 1.189
-0.090669252 -0.082331844 1.1910001
-0.088808022 -0.082539223 1.194
-0.086863682 -0.082677484 1.1960001
-0.083423898 -0.081364043 1.177
-0.081018403 -0.081018403 1.1720001
-0.078967303 -0.081018403 1.1720001
-0.077506863 -0.081640564 1.1810001
-0.075951025 -0.082193583 1.189
-0.073994443 -0.082331844 1.1910001
-0.071970463 -0.082400963 1.192
-0.069825739 -0.082331844 1.1910001
-0.067741394 -0.082331844 1.1910001
-0.065657042 -0.082331844 1.1910001
-0.063679442 -0.082470104 1.1930001
-0.061694849 -0.082608357 1.1950001
-0.059803005 -0.082884863 1.199
-0.057752781 -0.082953997 1.2
-0.055930946 -0.083368771 1.2060001
-0.05399885 -0.083645277 1.21
-0.051881246 -0.083645277 1.21
-0.049640264 -0.083437897 1.207
-0.047527913 -0.083437897 1.207
-0.045754205 -0.084060051 1.2160001
-0.13344392 -0.082201459 1.22
-0.13120119 -0.082134083 1.2190001
-0.12864432 -0.081864566 1.215
-0.12641385 -0.08179719 1.2140001
-0.12408447 -0.081662431 1.212
-0.12146023 -0.081325538 1.207
-0.11885347 -0.080988646 1.202
-0.11626422 -0.080651753 1.197
-0.11397862 -0.080517009 1.1950001
-0.11179363 -0.080449626 1.194
-0.10970403 -0.080449626 1.194
-0.10761443 -0.080449626 1.194
-0.10552483 -0.080449626 1.194
-0.10326197 -0.080314867 1.192
-0.10100612 -0.080180116 1.1900001
-0.098840386 -0.080112733 1.189
-0.09667816 -0.080045357 1.1880001
-0.094599061 -0.080045357 1.1880001
-0.092519961 -0.080045357 1.1880001
-0.090593114 -0.080180116 1.1900001
-0.088584892 -0.080247492 1.1910001
-0.086573169 -0.080314867 1.192
-0.083353005 -0.079236813 1.176
-0.081018403 -0.078967303 1.1720001
-0.078967303 -0.078967303 1.1720001
-0.077375598 -0.079438955 1.179
-0.075759403 -0.079910599 1.1860001
-0.073808059 -0.080045357 1.1880001
-0.071849711 -0.080180116 1.1900001
-0.06976711 -0.080180116 1.1900001
-0.067741394 -0.080247492 1.1910001
-0.065601908 -0.080180116 1.1900001
-0.06357269 -0.080247492 1.1910001
-0.061591592 -0.08038225 1.1930001
-0.059653375 -0.080584385 1.1960001
-0.057608396 -0.080651753 1.197
-0.055791814 -0.081056029 1.2030001
-0.053864967 -0.081325538 1.207
-0.051795494 -0.081392922 1.2080001
-0.049558014 -0.081190787 1.205
-0.04744916 -0.081190787 1.205
-0.045603696 -0.081662431 1.212
-0.13624582 -0.080460124 1.2260001
-0.13355331 -0.080131985 1.2210001
-0.13130882 -0.080066353 1.22
-0.12875021 -0.079803847 1.2160001
-0.12630971 -0.079606958 1.2130001
-0.1239821 -0.079475701 1.2110001
-0.12146023 -0.079213187 1.207
-0.11885347 -0.078885049 1.202
-0.11636136 -0.078622542 1.1980001
-0.11416937 -0.07855691 1.197
-0.11198089 -0.078491278 1.1960001
-0.10979591 -0.078425653 1.1950001
-0.10752431 -0.078294396 1.1930001
-0.10534807 -0.078228764 1.192
-0.10317535 -0.07816314 1.1910001
-0.10100612 -0.078097515 1.1900001
-0.098923512 -0.078097515 1.1900001
-0.096840918 -0.078097515 1.1900001
-0.094758317 -0.078097515 1.1900001
-0.092597827 -0.078031883 1.189
-0.090593114 -0.078097515 1.1900001
-0.088510513 -0.078097515 1.1900001
-0.086210027 -0.077900626 1.187
-0.084061801 -0.077835001 1.1860001
-0.081778817 -0.077638119 1.1830001
-0.079708464 -0.077638119 1.1830001
-0.077572487 -0.077572487 1.182
-0.075631641 -0.077703744 1.184
-0.073683806 -0.077835001 1.1860001
-0.071849711 -0.078097515 1.1900001
-0.06976711 -0.078097515 1.1900001
-0.067741394 -0.07816314 1.1910001
-0.065657042 -0.07816314 1.1910001
-0.063679442 -0.078294396 1.1930001
-0.061746474 -0.078491278 1.1960001
-0.059753127 -0.078622542 1.1980001
-0.057752781 -0.078753792 1.2
-0.055838194 -0.079016313 1.2040001
-0.053954225 -0.079344451 1.2090001
-0.051967002 -0.079541326 1.212
-0.049722522 -0.079344451 1.2090001
-0.047606673 -0.079344451 1.2090001
-0.045678951 -0.07967259 1.2140001
-0.13591242 -0.078122891 1.223
-0.13333456 -0.077867381 1.2190001
-0.13098593 -0.077739619 1.217
-0.12832668 -0.077420227 1.212
-0.12568492 -0.077100836 1.207
-0.12336782 -0.076973081 1.205
-0.12115834 -0.076909207 1.2040001
-0.11885347 -0.076781444 1.202
-0.11645848 -0.076589808 1.199
-0.114074 -0.076398179 1.1960001
-0.11198089 -0.076398179 1.1960001
-0.10970403 -0.076270424 1.194
-0.10743417 -0.076142661 1.192
-0.10499456 -0.075887159 1.1880001
-0.10291546 -0.075887159 1.1880001
-0.10075147 -0.075823277 1.187
-0.09875726 -0.075887159 1.1880001
-0.096596777 -0.075823277 1.187
-0.094519429 -0.075823277 1.187
-0.09244208 -0.075823277 1.187
-0.090364724 -0.075823277 1.187
-0.088287376 -0.075823277 1.187
-0.086064771 -0.075695522 1.1850001
-0.083990924 -0.075695522 1.1850001
-0.081847943 -0.075631641 1.184
-0.079708464 -0.075567767 1.1830001
-0.077572487 -0.075503886 1.182
-0.075631641 -0.075631641 1.184
-0.073683806 -0.075759403 1.1860001
-0.071668573 -0.075823277 1.187
-0.069591224 -0.075823277 1.187
-0.067513876 -0.075823277 1.187
-0.065491654 -0.075887159 1.1880001
-0.06357269 -0.076078795 1.1910001
-0.061643217 -0.076270424 1.194
-0.059703253 -0.07646206 1.197
-0.057704654 -0.076589808 1.199
-0.055745434 -0.076781444 1.202
-0.053864967 -0.077100836 1.207
-0.051967002 -0.077420227 1.212
-0.049804773 -0.077356353 1.2110001
-0.047724798 -0.077420227 1.212
-0.045716576 -0.077611856 1.215
-0.13602355 -0.076044664 1.2240001
-0.13355331 -0.07585828 1.2210001
-0.13098593 -0.075609758 1.217
-0.12843257 -0.075361252 1.2130001
-0.12568492 -0.074988484 1.207
-0.12347019 -0.074926361 1.2060001
-0.12125897 -0.074864231 1.205
-0.11905125 -0.074802108 1.2040001
-0.11655562 -0.074553594 1.2
-0.11426475 -0.074429341 1.1980001
-0.11216816 -0.074429341 1.1980001
-0.10997967 -0.074367203 1.197
-0.10761443 -0.074180819 1.194
-0.10499456 -0.073808059 1.1880001
-0.10282882 -0.073745921 1.187
-0.1006666 -0.073683806 1.1860001
-0.098674133 -0.073745921 1.187
-0.096596777 -0.073745921 1.187
-0.094599061 -0.073808059 1.1880001
-0.092519961 -0.073808059 1.1880001
-0.090440862 -0.073808059 1.1880001
-0.088361755 -0.073808059 1.1880001
-0.086282656 -0.073808059 1.1880001
-0.084203556 -0.073808059 1.1880001
-0.082055323 -0.073745921 1.187
-0.079977974 -0.073745921 1.187
-0.077769376 -0.073621668 1.1850001
-0.075695522 -0.073621668 1.1850001
-0.073745921 -0.073745921 1.187
-0.07172896 -0.073808059 1.1880001
-0.069591224 -0.073745921 1.187
-0.067570761 -0.073808059 1.1880001
-0.065491654 -0.073808059 1.1880001
-0.063626066 -0.074056566 1.192
-0.061643217 -0.074180819 1.194
-0.059753127 -0.074429341 1.1980001
-0.057800915 -0.074615717 1.2010001
-0.055791814 -0.07473997 1.2030001
-0.053909596 -0.075050615 1.2080001
-0.052009881 -0.075361252 1.2130001
-0.049928159 -0.07542339 1.2140001
-0.047803555 -0.07542339 1.2140001
-0.045791831 -0.075609758 1.217
-0.038436227 -0.077970639 1.2550001
-0.036210995 -0.077908501 1.2540001
-0.13861717 -0.074144073 1.228
-0.13591242 -0.073842183 1.223
-0.13333456 -0.073600672 1.2190001
-0.13066304 -0.073298782 1.2140001
-0.12800905 -0.072996892 1.2090001
-0.1255808 -0.072815761 1.2060001
-0.12336782 -0.072755381 1.205
-0.12125897 -0.072755381 1.205
-0.11905125 -0.072695009 1.2040001
-0.11665274 -0.072513871 1.2010001
-0.11426475 -0.072332732 1.1980001
-0.11198089 -0.072211981 1.1960001
-0.10970403 -0.072091222 1.194
-0.10761443 -0.072091222 1.194
-0.10517132 -0.071849711 1.1900001
-0.1027422 -0.071608201 1.1860001
-0.10058172 -0.071547821 1.1850001
-0.098507866 -0.071547821 1.1850001
-0.096434027 -0.071547821 1.1850001
-0.094360173 -0.071547821 1.1850001
-0.092364199 -0.071608201 1.1860001
-0.090288602 -0.071608201 1.1860001
-0.088213004 -0.071608201 1.1860001
-0.086210027 -0.071668573 1.187
-0.084132679 -0.071668573 1.187
-0.082055323 -0.071668573 1.187
-0.079843223 -0.071547821 1.1850001
-0.077769376 -0.071547821 1.1850001
-0.075759403 -0.071608201 1.1860001
-0.073745921 -0.071668573 1.187
-0.071668573 -0.071668573 1.187
-0.069532603 -0.071608201 1.1860001
-0.067456998 -0.071608201 1.1860001
-0.065491654 -0.07172896 1.1880001
-0.063519314 -0.071849711 1.1900001
-0.061488338 -0.071910091 1.1910001
-0.059553616 -0.072091222 1.194
-0.057608396 -0.072272353 1.197
-0.055606302 -0.072393112 1.199
-0.053731091 -0.072695009 1.2040001
-0.051795494 -0.072936513 1.2080001
-0.049763646 -0.073057272 1.21
-0.047685422 -0.073117651 1.2110001
-0.045754205 -0.073419541 1.2160001
-0.042658303 -0.075472385 1.25
-0.040664956 -0.075834654 1.256
-0.038436227 -0.075774282 1.2550001
-0.036239874 -0.075774282 1.2550001
-0.13861717 -0.071994968 1.228
-0.13580129 -0.071643196 1.222
-0.13344392 -0.071525946 1.22
-0.13066304 -0.071174182 1.2140001
-0.12832668 -0.071056925 1.212
-0.12599732 -0.07093966 1.21
-0.12367497 -0.07082241 1.2080001
-0.12135961 -0.07070516 1.2060001
-0.11905125 -0.070587903 1.2040001
-0.11674987 -0.070470646 1.202
-0.11426475 -0.070236139 1.1980001
-0.11198089 -0.070118874 1.1960001
-0.10979591 -0.070060246 1.1950001
-0.10770456 -0.070060246 1.1950001
-0.10534807 -0.06988436 1.192
-0.1027422 -0.069532603 1.1860001
-0.10049684 -0.069415346 1.184
-0.09842474 -0.069415346 1.184
-0.096434027 -0.069473974 1.1850001
-0.094519429 -0.069591224 1.187
-0.09244208 -0.069591224 1.187
-0.090288602 -0.069532603 1.1860001
-0.088213004 -0.069532603 1.1860001
-0.086137407 -0.069532603 1.1860001
-0.084061801 -0.069532603 1.1860001
-0.081986204 -0.069532603 1.1860001
-0.079843223 -0.069473974 1.1850001
-0.077769376 -0.069473974 1.1850001
-0.075695522 -0.069473974 1.1850001
-0.073683806 -0.069532603 1.1860001
-0.071668573 -0.069591224 1.187
-0.06964986 -0.06964986 1.1880001
-0.067627631 -0.069708481 1.189
-0.065546781 -0.069708481 1.189
-0.063519314 -0.06976711 1.1900001
-0.061488338 -0.069825739 1.1910001
-0.059553616 -0.070001617 1.194
-0.057608396 -0.07017751 1.197
-0.055606302 -0.07029476 1.199
-0.053686462 -0.070529275 1.2030001
-0.051709745 -0.07070516 1.2060001
-0.049681395 -0.07082241 1.2080001
-0.047803555 -0.071174182 1.2140001
-0.045942336 -0.071584575 1.2210001
-0.04282894 -0.073577918 1.2550001
-0.040794466 -0.073871061 1.2600001
-0.038589358 -0.073871061 1.2600001
-0.036442008 -0.073988318 1.2620001
-0.13850431 -0.069788985 1.2270001
-0.13546792 -0.069333971 1.2190001
-0.13300641 -0.069163337 1.2160001
-0.13044778 -0.068935819 1.212
-0.1282208 -0.068878941 1.2110001
-0.12589321 -0.068765193 1.2090001
-0.12336782 -0.068537675 1.205
-0.1210577 -0.068423927 1.2030001
-0.1187546 -0.068310164 1.2010001
-0.11655562 -0.068253286 1.2
-0.11397862 -0.067968898 1.1950001
-0.11170001 -0.067855142 1.1930001
-0.10961216 -0.067855142 1.1930001
-0.10743417 -0.067798264 1.192
-0.1048178 -0.067456998 1.1860001
-0.10230906 -0.067172617 1.1810001
-0.10007244 -0.067058854 1.179
-0.098092228 -0.067115732 1.1800001
-0.096189879 -0.067229487 1.182
-0.094280541 -0.067343242 1.184
-0.092208438 -0.067343242 1.184
-0.090136342 -0.067343242 1.184
-0.087989867 -0.067286365 1.1830001
-0.085919522 -0.067286365 1.1830001
-0.083778284 -0.067229487 1.182
-0.081778817 -0.067286365 1.1830001
-0.079708464 -0.067286365 1.1830001
-0.077703744 -0.067343242 1.184
-0.075631641 -0.067343242 1.184
-0.073497415 -0.067286365 1.1830001
-0.071487442 -0.067343242 1.184
-0.069473974 -0.06740012 1.1850001
-0.067513876 -0.067513876 1.187
-0.065436527 -0.067513876 1.187
-0.063465931 -0.067627631 1.189
-0.061436713 -0.067684516 1.1900001
-0.059403993 -0.067741394 1.1910001
-0.057415891 -0.067855142 1.1930001
-0.055467173 -0.068025775 1.1960001
-0.05350795 -0.068196408 1.199
-0.051623989 -0.068480805 1.2040001
-0.049640264 -0.06865143 1.207
-0.047842931 -0.069106452 1.215
-0.045979965 -0.069504596 1.222
-0.042726558 -0.071210928 1.2520001
-0.040729713 -0.071552195 1.258
-0.038711865 -0.071893461 1.2640001
-0.03655751 -0.072007217 1.266
-0.13827854 -0.067531377 1.225
-0.1351345 -0.067035228 1.2160001
-0.13278766 -0.066924982 1.2140001
-0.13055541 -0.066869847 1.2130001
-0.12832668 -0.066814721 1.212
-0.12589321 -0.06664934 1.2090001
-0.12326545 -0.066373698 1.2040001
-0.12095707 -0.066263437 1.202
-0.1187546 -0.066208318 1.2010001
-0.11645848 -0.066098057 1.199
-0.114074 -0.065932676 1.1960001
-0.11188726 -0.065877549 1.1950001
-0.10961216 -0.065767296 1.1930001
-0.10698353 -0.065436527 1.187
-0.10428753 -0.065050632 1.1800001
-0.10196254 -0.064885251 1.177
-0.099817805 -0.064830117 1.176
-0.097925976 -0.064940378 1.1780001
-0.096108504 -0.065105766 1.1810001
-0.094280541 -0.065271147 1.184
-0.092208438 -0.065271147 1.184
-0.090136342 -0.065271147 1.184
-0.08791548 -0.065160885 1.182
-0.085919522 -0.06521602 1.1830001
-0.083849162 -0.06521602 1.1830001
-0.081778817 -0.06521602 1.1830001
-0.07977584 -0.065271147 1.184
-0.077769376 -0.065326273 1.1850001
-0.075631641 -0.065271147 1.184
-0.073373161 -0.065105766 1.1810001
-0.07136669 -0.065160885 1.182
-0.069415346 -0.065271147 1.184
-0.067513876 -0.065436527 1.187
-0.065491654 -0.065491654 1.1880001
-0.063519314 -0.065601908 1.1900001
-0.061488338 -0.065657042 1.1910001
-0.05945386 -0.065712161 1.192
-0.057512149 -0.065877549 1.1950001
-0.05551355 -0.065987803 1.197
-0.05350795 -0.066098057 1.199
-0.051666863 -0.066428825 1.205
-0.049681395 -0.066594206 1.2080001
-0.04792168 -0.067090355 1.217
-0.04495354 -0.069074951 1.253
-0.042897191 -0.069295458 1.2570001
-0.040826842 -0.069515973 1.261
-0.038742494 -0.069736488 1.2650001
-0.036586385 -0.069846742 1.2670001
-0.13816565 -0.065334149 1.2240001
-0.13502339 -0.06485375 1.215
-0.13256888 -0.064693615 1.212
-0.13044778 -0.064693615 1.212
-0.1282208 -0.064640239 1.2110001
-0.12568492 -0.064426728 1.207
-0.12316306 -0.064213216 1.2030001
-0.12075581 -0.064053088 1.2
-0.11845796 -0.063946329 1.1980001
-0.1161671 -0.063839577 1.1960001
-0.11397862 -0.063786201 1.1950001
-0.11170001 -0.063679442 1.1930001
-0.10878523 -0.063199043 1.184
-0.10590198 -0.062718645 1.1750001
-0.10331535 -0.062398378 1.169
-0.1012695 -0.062398378 1.169
