# .PCD v0.7 - Point Cloud Data file format
VERSION 0.7
FIELDS x y z
SIZE 4 4 4
TYPE F F F
COUNT 1 1 1
WIDTH 1439
HEIGHT 1
VIEWPOINT 0 0 0 1 0 0 0
POINTS 1439
DATA ascii
-0.075049736 -0.14031038 1.243
-0.072933018 -0.14042327 1.2440001
-0.071097173 -0.14110054 1.25
-0.069130085 -0.14155206 1.2540001
-0.066828728 -0.14132631 1.2520001
-0.064276218 -0.14053613 1.245
-0.061997607 -0.14031038 1.243
-0.059966642 -0.14064902 1.2460001
-0.057646897 -0.14031038 1.243
-0.055293038 -0.13985886 1.2390001
-0.052867424 -0.13918158 1.233
-0.050997455 -0.13997175 1.24
-0.048984859 -0.14042327 1.2440001
-0.046807755 -0.14042327 1.2440001
-0.094780192 -0.13835728 1.245
-0.092155069 -0.13769051 1.2390001
-0.089986712 -0.13769051 1.2390001
-0.088172749 -0.13824616 1.2440001
-0.086479537 -0.13902406 1.251
-0.084290184 -0.13902406 1.251
-0.081969574 -0.13880181 1.2490001
-0.079528205 -0.13835728 1.245
-0.077162966 -0.1380239 1.2420001
-0.074868605 -0.13780163 1.24
-0.072698504 -0.13780163 1.24
-0.070699029 -0.13813503 1.243
-0.068523675 -0.13813503 1.243
-0.066348314 -0.13813503 1.243
-0.063966461 -0.13769051 1.2390001
-0.061698347 -0.13746825 1.2370001
-0.059726004 -0.13791277 1.2410001
-0.057415012 -0.13757937 1.238
-0.055293038 -0.13769051 1.2390001
-0.053081807 -0.13757937 1.238
-0.051244218 -0.13846841 1.2460001
-0.049063616 -0.13846841 1.2460001
-0.046657246 -0.13780163 1.24
-0.044415392 -0.13757937 1.238
-0.098580502 -0.13541277 1.238
-0.096102379 -0.13497525 1.2340001
-0.094627932 -0.13595967 1.243
-0.091485657 -0.13453773 1.23
-0.089405678 -0.13464712 1.2310001
-0.087463968 -0.13497525 1.2340001
-0.085649997 -0.13552216 1.2390001
-0.083683789 -0.1358503 1.2420001
-0.081444547 -0.13574091 1.2410001
-0.079208814 -0.13563153 1.24
-0.076728068 -0.13508463 1.235
-0.074325204 -0.13464712 1.2310001
-0.072229482 -0.13475651 1.2320001
-0.070244007 -0.13508463 1.235
-0.068192914 -0.13530339 1.2370001
-0.065974675 -0.135194 1.2360001
-0.063656688 -0.13486587 1.233
-0.061448961 -0.13475651 1.2320001
-0.059389111 -0.13497525 1.2340001
-0.057275884 -0.13508463 1.235
-0.05524841 -0.13541277 1.238
-0.053124685 -0.13552216 1.2390001
-0.050997455 -0.13563153 1.24
-0.048787978 -0.13552216 1.2390001
-0.04650674 -0.135194 1.2360001
-0.044487141 -0.13563153 1.24
-0.042590052 -0.13650657 1.248
-0.10131676 -0.13399957 1.245
-0.098102726 -0.1326004 1.2320001
-0.096491769 -0.1333538 1.2390001
-0.094247289 -0.13324617 1.238
-0.092080683 -0.13324617 1.238
-0.089768827 -0.13303092 1.2360001
-0.087605722 -0.13303092 1.2360001
-0.085304365 -0.13281566 1.2340001
-0.08321213 -0.13292328 1.235
-0.080985151 -0.13281566 1.2340001
-0.078761667 -0.13270803 1.233
-0.076417431 -0.13238513 1.23
-0.074144073 -0.13216987 1.228
-0.072053596 -0.1322775 1.2290001
-0.070016503 -0.13249277 1.2310001
-0.067972399 -0.13270803 1.233
-0.065761171 -0.1326004 1.2320001
-0.063501805 -0.13238513 1.23
-0.06124945 -0.13216987 1.228
-0.059196599 -0.13238513 1.23
-0.057090376 -0.13249277 1.2310001
-0.055069905 -0.13281566 1.2340001
-0.052953172 -0.13292328 1.235
-0.050874077 -0.13313855 1.2370001
-0.048748598 -0.13324617 1.238
-0.046581991 -0.13324617 1.238
-0.044523019 -0.13356906 1.2410001
-0.04248767 -0.13399957 1.245
-0.040470697 -0.13453773 1.25
-0.10366187 -0.13203248 1.2470001
-0.10025883 -0.13044429 1.2320001
-0.098899022 -0.13150309 1.2420001
-0.096647531 -0.1313972 1.2410001
-0.094475672 -0.1313972 1.2410001
-0.092080683 -0.13107955 1.238
-0.089768827 -0.13086779 1.2360001
-0.087463968 -0.13065605 1.2340001
-0.085027844 -0.13023251 1.23
-0.082807869 -0.13012666 1.2290001
-0.080460124 -0.12980901 1.2260001
-0.078314528 -0.12980901 1.2260001
-0.076044664 -0.12959725 1.2240001
-0.073842183 -0.12949136 1.223
-0.071760453 -0.12959725 1.2240001
-0.069675229 -0.12970312 1.225
-0.067586511 -0.12980901 1.2260001
-0.065440901 -0.12980901 1.2260001
-0.063243672 -0.12970312 1.225
-0.061000068 -0.12949136 1.223
-0.058859706 -0.12949136 1.223
-0.056858491 -0.12980901 1.2260001
-0.054846767 -0.13012666 1.2290001
-0.052781668 -0.1303384 1.2310001
-0.050627314 -0.1303384 1.2310001
-0.048472963 -0.1303384 1.2310001
-0.04639386 -0.13055016 1.233
-0.044343635 -0.13086779 1.2360001
-0.042385291 -0.13150309 1.2420001
-0.040276442 -0.13171484 1.2440001
-0.038252469 -0.13224424 1.2490001
-0.10584422 -0.12985013 1.2470001
-0.10299684 -0.12901708 1.2390001
-0.10099123 -0.12922534 1.2410001
-0.098978646 -0.12943362 1.243
-0.097192675 -0.12995426 1.248
-0.094323419 -0.12901708 1.2390001
-0.092006311 -0.12880884 1.2370001
-0.08962357 -0.12849644 1.2340001
-0.087322205 -0.12828819 1.2320001
-0.084889583 -0.12787166 1.228
-0.082538351 -0.12755927 1.225
-0.080328874 -0.12745515 1.2240001
-0.078122891 -0.127351 1.223
-0.075920403 -0.12724687 1.222
-0.073661044 -0.12703863 1.22
-0.071525946 -0.12703863 1.22
-0.069390841 -0.12703863 1.22
-0.06731087 -0.12714276 1.2210001
-0.065227389 -0.12724687 1.222
-0.063088782 -0.12724687 1.222
-0.060900312 -0.12714276 1.2210001
-0.058763459 -0.12714276 1.2210001
-0.056672975 -0.12724687 1.222
-0.054668259 -0.12755927 1.225
-0.052567285 -0.1276634 1.2260001
-0.050503932 -0.12787166 1.228
-0.048394207 -0.12797579 1.2290001
-0.046318606 -0.12818405 1.2310001
-0.044236004 -0.12839231 1.233
-0.042282913 -0.12901708 1.2390001
-0.040114559 -0.12901708 1.2390001
-0.038068708 -0.12943362 1.243
-0.036095489 -0.13016251 1.25
-0.10776669 -0.12736063 1.2440001
-0.10499544 -0.12664399 1.2370001
-0.10249806 -0.12623446 1.233
-0.10082848 -0.12684874 1.2390001
-0.098739758 -0.12695111 1.24
-0.096647531 -0.1270535 1.2410001
-0.094018899 -0.1264392 1.235
-0.091560036 -0.1260297 1.2310001
-0.089115173 -0.12562019 1.2270001
-0.086826049 -0.12541541 1.225
-0.084613077 -0.12531304 1.2240001
-0.082201459 -0.12490351 1.22
-0.080000736 -0.12480114 1.2190001
-0.077803493 -0.12469876 1.2180001
-0.075547643 -0.12449399 1.2160001
-0.073298782 -0.12428924 1.2140001
-0.071232803 -0.12439161 1.215
-0.069106452 -0.12439161 1.215
-0.067090355 -0.12459638 1.217
-0.064960502 -0.12459638 1.217
-0.062830649 -0.12459638 1.217
-0.060601044 -0.12439161 1.215
-0.058474693 -0.12439161 1.215
-0.056394719 -0.12449399 1.2160001
-0.0544005 -0.12480114 1.2190001
-0.05231002 -0.12490351 1.22
-0.050216045 -0.1250059 1.2210001
-0.048157945 -0.12521066 1.223
-0.046092842 -0.12541541 1.225
-0.044092499 -0.12582494 1.2290001
-0.042078152 -0.12623446 1.233
-0.040017426 -0.12654158 1.2360001
-0.037884951 -0.12664399 1.2370001
-0.035893355 -0.12725826 1.243
-0.033853628 -0.12777016 1.248
-0.11073921 -0.1260892 1.253
-0.10768006 -0.1250829 1.243
-0.10516519 -0.12468039 1.2390001
-0.10307996 -0.12478101 1.24
-0.10099123 -0.12488165 1.2410001
-0.098739758 -0.12478101 1.24
-0.096336022 -0.12447912 1.2370001
-0.093714394 -0.12387534 1.2310001
-0.091188148 -0.12337219 1.2260001
-0.088752024 -0.12296966 1.222
-0.086542547 -0.12286904 1.2210001
-0.08440569 -0.12286904 1.2210001
-0.0820667 -0.12256715 1.2180001
-0.079869471 -0.12246652 1.217
-0.077675745 -0.1223659 1.2160001
-0.075485505 -0.12226526 1.215
-0.073178023 -0.12196337 1.212
-0.071115553 -0.12206401 1.2130001
-0.068992697 -0.12206401 1.2130001
-0.066924982 -0.12216464 1.2140001
-0.064800374 -0.12216464 1.2140001
-0.062727399 -0.12226526 1.215
-0.060501292 -0.12206401 1.2130001
-0.058378439 -0.12206401 1.2130001
-0.056301963 -0.12216464 1.2140001
-0.054221984 -0.12226526 1.215
-0.052181385 -0.12246652 1.217
-0.050092664 -0.12256715 1.2180001
-0.048039813 -0.12276841 1.22
-0.045979965 -0.12296966 1.222
-0.044056624 -0.12357344 1.228
-0.042009898 -0.12387534 1.2310001
-0.040017426 -0.12437849 1.2360001
-0.037854325 -0.12437849 1.2360001
-0.03574897 -0.12457976 1.238
-0.033663746 -0.12488165 1.2410001
-0.031745657 -0.12588795 1.251
-0.11628786 -0.12280867 1.2420001
-0.11484928 -0.1235997 1.25
-0.11284194 -0.12379747 1.2520001
-0.11091597 -0.12409411 1.2550001
-0.10785332 -0.1231053 1.245
-0.10533495 -0.12270978 1.2410001
-0.1029137 -0.12241314 1.238
-0.10050297 -0.12211651 1.235
-0.097943462 -0.12162211 1.23
-0.09571299 -0.12152324 1.2290001
-0.093333744 -0.12122659 1.2260001
-0.090965003 -0.12092995 1.223
-0.088534147 -0.12053443 1.2190001
-0.086329907 -0.12043555 1.2180001
-0.084060051 -0.12023779 1.2160001
-0.081864566 -0.12013891 1.215
-0.079606958 -0.11994115 1.2130001
-0.077420227 -0.11984228 1.212
-0.075174868 -0.11964452 1.21
-0.072936513 -0.11944676 1.2080001
-0.070881039 -0.11954565 1.2090001
-0.068708308 -0.11944676 1.2080001
-0.066759594 -0.11974339 1.2110001
-0.064640239 -0.11974339 1.2110001
-0.062520891 -0.11974339 1.2110001
-0.060301784 -0.11954565 1.2090001
-0.058185928 -0.11954565 1.2090001
-0.056116454 -0.11964452 1.21
-0.054043479 -0.11974339 1.2110001
-0.052009881 -0.11994115 1.2130001
-0.049969282 -0.12013891 1.215
-0.04796106 -0.12043555 1.2180001
-0.045867085 -0.12053443 1.2190001
-0.043877237 -0.12092995 1.223
-0.041839264 -0.12122659 1.2260001
-0.039855544 -0.12172099 1.2310001
-0.037731819 -0.12181988 1.2320001
-0.035633467 -0.12201764 1.2340001
-0.033500988 -0.12211651 1.235
-0.031491894 -0.12270978 1.2410001
-0.029556299 -0.12369858 1.251
-0.1147574 -0.12131497 1.2490001
-0.11329258 -0.12209201 1.2570001
-0.11029731 -0.12121783 1.248
-0.10793995 -0.12102357 1.2460001
-0.10508031 -0.12024654 1.238
-0.10299684 -0.12034367 1.2390001
-0.10034021 -0.11976089 1.233
-0.098023094 -0.11956663 1.2310001
-0.09571299 -0.11937238 1.2290001
-0.093257613 -0.11898386 1.225
-0.090965003 -0.1187896 1.223
-0.088534147 -0.11840108 1.2190001
-0.086329907 -0.11830395 1.2180001
-0.084060051 -0.1181097 1.2160001
-0.081864566 -0.11801256 1.215
-0.07967259 -0.11791544 1.2140001
-0.077420227 -0.11772116 1.212
-0.075236998 -0.11762404 1.2110001
-0.072996892 -0.11742978 1.2090001
-0.070881039 -0.11742978 1.2090001
-0.06865143 -0.11723552 1.207
-0.06664934 -0.11742978 1.2090001
-0.064586863 -0.1175269 1.21
-0.062572517 -0.11772116 1.212
-0.06040154 -0.11762404 1.2110001
-0.058234055 -0.1175269 1.21
-0.056162834 -0.11762404 1.2110001
-0.054088105 -0.11772116 1.212
-0.052009881 -0.1178183 1.2130001
-0.049969282 -0.11801256 1.215
-0.047882307 -0.1181097 1.2160001
-0.045829456 -0.11830395 1.2180001
-0.043769605 -0.1184982 1.22
-0.041771013 -0.11888673 1.2240001
-0.039790794 -0.11937238 1.2290001
-0.037731819 -0.11966377 1.2320001
-0.035633467 -0.11985803 1.2340001
-0.033582367 -0.12024654 1.238
-0.031542644 -0.12073219 1.243
-0.029509049 -0.12131497 1.2490001
-0.027323192 -0.12131497 1.2490001
-0.11540056 -0.11979677 1.256
-0.11329258 -0.11989216 1.2570001
-0.11047406 -0.11922449 1.25
-0.10819984 -0.11912911 1.2490001
-0.10491055 -0.11788917 1.2360001
-0.10249806 -0.11760303 1.233
-0.10009607 -0.1173169 1.23
-0.097784206 -0.11712614 1.228
-0.095479347 -0.11693538 1.2260001
-0.093105353 -0.11664925 1.223
-0.090741873 -0.11636309 1.22
-0.088388883 -0.11607696 1.217
-0.08618816 -0.11598159 1.2160001
-0.08392179 -0.11579083 1.2140001
-0.081729807 -0.11569545 1.2130001
-0.079410069 -0.11540931 1.21
-0.077228598 -0.11531393 1.2090001
-0.075050615 -0.11521856 1.2080001
-0.072815761 -0.11502779 1.2060001
-0.070646524 -0.11493241 1.205
-0.068480805 -0.11483704 1.2040001
-0.066483952 -0.11502779 1.2060001
-0.064480104 -0.11521856 1.2080001
-0.062366005 -0.11521856 1.2080001
-0.060202025 -0.11512317 1.207
-0.057993416 -0.11493241 1.205
-0.055930946 -0.11502779 1.2060001
-0.053909596 -0.11521856 1.2080001
-0.051838376 -0.11531393 1.2090001
-0.049763646 -0.11540931 1.21
-0.047685422 -0.11550469 1.2110001
-0.045641325 -0.11569545 1.2130001
-0.043590225 -0.1158862 1.215
-0.041566253 -0.11617235 1.2180001
-0.039564155 -0.11655386 1.222
-0.037578687 -0.11703077 1.2270001
-0.035517961 -0.1173169 1.23
-0.033528116 -0.11788917 1.2360001
-0.031466514 -0.1182707 1.24
-0.029414542 -0.11874759 1.245
-0.02717006 -0.11846146 1.2420001
-0.025076957 -0.11884298 1.2460001
-0.11521681 -0.1174114 1.2540001
-0.11311233 -0.11750504 1.2550001
-0.11029731 -0.11684962 1.248
-0.10802659 -0.11675601 1.2470001
-0.10491055 -0.11572608 1.2360001
-0.10249806 -0.11544518 1.233
-0.10025883 -0.11535156 1.2320001
-0.097943462 -0.11516429 1.23
-0.095479347 -0.11478978 1.2260001
-0.093029231 -0.11441525 1.222
-0.090741873 -0.114228 1.22
-0.088461511 -0.11404074 1.2180001
-0.08625903 -0.1139471 1.217
-0.08392179 -0.11366623 1.2140001
-0.081662431 -0.11347897 1.212
-0.079410069 -0.1132917 1.21
-0.077228598 -0.11319808 1.2090001
-0.075050615 -0.11310446 1.2080001
-0.072876133 -0.11301082 1.207
-0.07070516 -0.11291719 1.2060001
-0.068537675 -0.11282355 1.205
-0.066483952 -0.11291719 1.2060001
-0.064426728 -0.11301082 1.207
-0.062366005 -0.11310446 1.2080001
-0.060202025 -0.11301082 1.207
-0.058089674 -0.11301082 1.207
-0.055977318 -0.11301082 1.207
-0.053954225 -0.11319808 1.2090001
-0.051881246 -0.1132917 1.21
-0.049722522 -0.11319808 1.2090001
-0.047567293 -0.11310446 1.2080001
-0.045528442 -0.1132917 1.21
-0.043554351 -0.11366623 1.2140001
-0.041532125 -0.1139471 1.217
-0.039499402 -0.114228 1.22
-0.037486807 -0.11460253 1.2240001
-0.035489086 -0.11507067 1.2290001
-0.033500988 -0.11563244 1.235
-0.031441141 -0.11600697 1.2390001
-0.029414542 -0.11656873 1.245
-0.027213812 -0.11647511 1.2440001
-0.025076957 -0.11666237 1.2460001
-0.12218913 -0.11558431 1.258
-0.1197014 -0.11530868 1.2550001
-0.1176923 -0.11549245 1.2570001
-0.11484928 -0.11484928 1.25
-0.11248142 -0.11466552 1.248
-0.10967866 -0.11402237 1.2410001
-0.10716029 -0.11365485 1.2370001
-0.10465591 -0.11328734 1.233
-0.10233181 -0.11310358 1.2310001
-0.10009607 -0.1130117 1.23
-0.097704589 -0.11273605 1.2270001
-0.0953236 -0.11246042 1.2240001
-0.092800848 -0.11200102 1.2190001
-0.090518728 -0.11181726 1.217
-0.088243626 -0.1116335 1.215
-0.086046398 -0.11154163 1.2140001
-0.083714411 -0.11126599 1.2110001
-0.081460305 -0.11108223 1.2090001
-0.079147562 -0.11080659 1.2060001
-0.076973081 -0.1107147 1.205
-0.07473997 -0.11053095 1.2030001
-0.072513871 -0.1103472 1.2010001
-0.070470646 -0.11043906 1.202
-0.068367042 -0.11043906 1.202
-0.066318572 -0.11053095 1.2030001
-0.064213216 -0.11053095 1.2030001
-0.062159494 -0.11062284 1.2040001
-0.060002517 -0.11053095 1.2030001
-0.057945296 -0.11062284 1.2040001
-0.055838194 -0.11062284 1.2040001
-0.053775713 -0.1107147 1.205
-0.051666863 -0.1107147 1.205
-0.049516886 -0.11062284 1.2040001
-0.04744916 -0.1107147 1.205
-0.045453191 -0.11099035 1.2080001
-0.04344672 -0.11126599 1.2110001
-0.04139562 -0.11144974 1.2130001
-0.03933752 -0.1116335 1.215
-0.0373643 -0.1120929 1.22
-0.035373576 -0.11255229 1.225
-0.03333823 -0.11291982 1.2290001
-0.031314261 -0.11337921 1.2340001
-0.029320035 -0.11402237 1.2410001
-0.027213812 -0.11429801 1.2440001
-0.025076957 -0.11448176 1.2460001
-0.022951482 -0.1147574 1.2490001
-0.12209201 -0.11329258 1.2570001
-0.11931988 -0.11275181 1.251
-0.11722414 -0.11284194 1.2520001
-0.11494116 -0.11275181 1.251
-0.11248142 -0.11248142 1.248
-0.10967866 -0.11185052 1.2410001
-0.10681377 -0.11112947 1.233
-0.10465591 -0.11112947 1.233
-0.10233181 -0.11094922 1.2310001
-0.1000147 -0.11076896 1.2290001
-0.097624958 -0.11049858 1.2260001
-0.0953236 -0.11031832 1.2240001
-0.093029231 -0.11013805 1.222
-0.090667494 -0.10986767 1.2190001
-0.088388883 -0.1096874 1.217
-0.086046398 -0.10941702 1.2140001
-0.083645277 -0.1090565 1.21
-0.081325538 -0.10878611 1.207
-0.079147562 -0.10869599 1.2060001
-0.076973081 -0.10860585 1.205
-0.074677847 -0.10833547 1.202
-0.072513871 -0.10824534 1.2010001
-0.070470646 -0.10833547 1.202
-0.068423927 -0.10842559 1.2030001
-0.066373698 -0.10851573 1.2040001
-0.0642666 -0.10851573 1.2040001
-0.062159494 -0.10851573 1.2040001
-0.060052395 -0.10851573 1.2040001
-0.057993416 -0.10860585 1.205
-0.055884566 -0.10860585 1.205
-0.053864967 -0.10878611 1.207
-0.051709745 -0.10869599 1.2060001
-0.049558014 -0.10860585 1.205
-0.04744916 -0.10860585 1.205
-0.045453191 -0.10887624 1.2080001
-0.043374967 -0.10896637 1.2090001
-0.041327368 -0.10914663 1.2110001
-0.039305143 -0.10941702 1.2140001
-0.0373643 -0.10995779 1.22
-0.035344701 -0.11031832 1.2240001
-0.033283979 -0.11058871 1.2270001
-0.031263508 -0.11103936 1.2320001
-0.029296409 -0.11176038 1.24
-0.027235685 -0.11221103 1.245
-0.025097085 -0.11239129 1.2470001
-0.022933103 -0.11248142 1.248
-0.1223834 -0.11135787 1.2600001
-0.11941526 -0.11065084 1.2520001
-0.11638148 -0.10985541 1.243
-0.11429801 -0.10994379 1.2440001
-0.11167026 -0.1095019 1.2390001
-0.10932515 -0.10932515 1.2370001
-0.10655388 -0.10870648 1.23
-0.10431641 -0.10861811 1.2290001
-0.10199929 -0.10844135 1.2270001
-0.099770553 -0.10835297 1.2260001
-0.09738607 -0.10808783 1.223
-0.095167831 -0.10799944 1.222
-0.092800848 -0.10773432 1.2190001
-0.090444356 -0.10746918 1.2160001
-0.08809837 -0.10720404 1.2130001
-0.085762881 -0.1069389 1.21
-0.083437897 -0.10667376 1.207
-0.081123412 -0.10640863 1.2040001
-0.078885049 -0.10623186 1.202
-0.076653697 -0.10605511 1.2
-0.074367203 -0.10578997 1.197
-0.072272353 -0.10578997 1.197
-0.070236139 -0.10587835 1.1980001
-0.068253286 -0.10605511 1.2
-0.066208318 -0.10614349 1.2010001
-0.064106472 -0.10614349 1.2010001
-0.062004618 -0.10614349 1.2010001
-0.059902765 -0.10614349 1.2010001
-0.057752781 -0.10605511 1.2
-0.055652682 -0.10605511 1.2
-0.053597208 -0.10614349 1.2010001
-0.051495355 -0.10614349 1.2010001
-0.049393509 -0.10614349 1.2010001
-0.047291655 -0.10614349 1.2010001
-0.045302682 -0.10640863 1.2040001
-0.043231457 -0.106497 1.205
-0.041190859 -0.10667376 1.207
-0.039208014 -0.10702728 1.2110001
-0.03727242 -0.10755755 1.217
-0.035258073 -0.10791107 1.2210001
-0.0332026 -0.10817622 1.2240001
-0.031161999 -0.10852973 1.228
-0.029201906 -0.10923676 1.2360001
-0.027104432 -0.1095019 1.2390001
-0.024996454 -0.10976704 1.2420001
-0.022822851 -0.10976704 1.2420001
-0.12248053 -0.10923938 1.261
-0.11951062 -0.10854635 1.253
-0.11684962 -0.10811321 1.248
-0.11457365 -0.10802659 1.2470001
-0.11221103 -0.10785332 1.245
-0.10976704 -0.10759343 1.2420001
-0.1069004 -0.1069004 1.2340001
-0.10448616 -0.10664051 1.2310001
-0.10191616 -0.10620737 1.2260001
-0.099689178 -0.10612074 1.225
-0.097306438 -0.10586084 1.222
-0.094934203 -0.10560096 1.2190001
-0.092648581 -0.1054277 1.217
-0.090295605 -0.10516782 1.2140001
-0.088025734 -0.10499455 1.212
-0.085621126 -0.10464804 1.2080001
-0.083437897 -0.10456141 1.207
-0.081123412 -0.10430153 1.2040001
-0.079016313 -0.10430153 1.2040001
-0.076781444 -0.10412826 1.202
-0.074491456 -0.10386837 1.199
-0.072393112 -0.10386837 1.199
-0.070236139 -0.10378175 1.1980001
-0.068196408 -0.10386837 1.199
-0.066042937 -0.10378175 1.1980001
-0.063946329 -0.10378175 1.1980001
-0.061798099 -0.10369512 1.197
-0.059703253 -0.10369512 1.197
-0.05765653 -0.10378175 1.1980001
-0.055606302 -0.10386837 1.199
-0.053641833 -0.10412826 1.202
-0.051581111 -0.1042149 1.2030001
-0.049475759 -0.1042149 1.2030001
-0.047331028 -0.10412826 1.202
-0.045302682 -0.10430153 1.2040001
-0.043231457 -0.10438816 1.205
-0.041190859 -0.10456141 1.207
-0.03924039 -0.10499455 1.212
-0.037241794 -0.10534108 1.2160001
-0.035229199 -0.10568759 1.22
-0.0332026 -0.10603411 1.2240001
-0.031212755 -0.10655388 1.23
-0.029225534 -0.10716029 1.2370001
-0.027104432 -0.10733355 1.2390001
-0.024976328 -0.1075068 1.2410001
-0.022804473 -0.1075068 1.2410001
-0.12180061 -0.10643838 1.2540001
-0.11951062 -0.10635349 1.253
-0.11638148 -0.1055047 1.243
-0.11420612 -0.1055047 1.243
-0.11158012 -0.10508031 1.238
-0.10923676 -0.10491055 1.2360001
-0.10664051 -0.10448616 1.2310001
-0.10431641 -0.10431641 1.2290001
-0.10183302 -0.10397688 1.225
-0.099607803 -0.10389201 1.2240001
-0.097147182 -0.10355249 1.22
-0.094778441 -0.10329785 1.217
-0.092191823 -0.10278858 1.2110001
-0.08984933 -0.10253394 1.2080001
-0.087589972 -0.10236418 1.2060001
-0.085266739 -0.10210954 1.2030001
-0.083023123 -0.10193979 1.2010001
-0.080786511 -0.10177002 1.199
-0.078688167 -0.10177002 1.199
-0.076525934 -0.10168515 1.1980001
-0.07430508 -0.10151539 1.1960001
-0.072211981 -0.10151539 1.1960001
-0.070001617 -0.10134563 1.194
-0.067968898 -0.10143051 1.1950001
-0.065767296 -0.10126076 1.1930001
-0.063679442 -0.10126076 1.1930001
-0.061591592 -0.10126076 1.1930001
-0.059553616 -0.10134563 1.194
-0.057512149 -0.10143051 1.1950001
-0.055467173 -0.10151539 1.1960001
-0.053418696 -0.10160027 1.197
-0.051366724 -0.10168515 1.1980001
-0.04931125 -0.10177002 1.199
-0.047252279 -0.10185491 1.2
-0.045152176 -0.10185491 1.2
-0.043123826 -0.10202466 1.202
-0.041122608 -0.1022793 1.205
-0.039143264 -0.10261882 1.2090001
-0.037119288 -0.10287345 1.212
-0.035113692 -0.10321297 1.2160001
-0.033148345 -0.10372224 1.222
-0.031187378 -0.10431641 1.2290001
-0.029154655 -0.1047408 1.2340001
-0.027038803 -0.10491055 1.2360001
-0.024895824 -0.10499544 1.2370001
-0.022749346 -0.10508031 1.238
-0.020748999 -0.1059291 1.248
-0.12448963 -0.10465942 1.2590001
-0.12189775 -0.10432691 1.2550001
-0.11979677 -0.10441003 1.256
-0.11713052 -0.10399438 1.251
-0.11466552 -0.103745 1.248
-0.1121209 -0.10341249 1.2440001
-0.10967866 -0.10316309 1.2410001
-0.10707366 -0.10274745 1.2360001
-0.10465591 -0.10249806 1.233
-0.10216554 -0.10216554 1.2290001
-0.099689178 -0.10183302 1.225
-0.097226813 -0.10150052 1.2210001
-0.094622679 -0.10100174 1.215
-0.092191823 -0.10066923 1.2110001
-0.089774944 -0.10033671 1.207
-0.087517343 -0.10017045 1.205
-0.085266739 -0.10000419 1.2030001
-0.083023123 -0.099837936 1.2010001
-0.080786511 -0.099671669 1.199
-0.078753792 -0.09975481 1.2
-0.076653697 -0.09975481 1.2
-0.074491456 -0.099671669 1.199
-0.072393112 -0.099671669 1.199
-0.070118874 -0.099422291 1.1960001
-0.067968898 -0.099339157 1.1950001
-0.065767296 -0.099172905 1.1930001
-0.063679442 -0.099172905 1.1930001
-0.061643217 -0.099256024 1.194
-0.059603497 -0.099339157 1.1950001
-0.057560276 -0.099422291 1.1960001
-0.05551355 -0.099505417 1.197
-0.053463325 -0.099588551 1.1980001
-0.051409598 -0.099671669 1.199
-0.049352378 -0.09975481 1.2
-0.047331028 -0.099921063 1.202
-0.045227427 -0.099921063 1.202
-0.043195583 -0.10008733 1.2040001
-0.041122608 -0.10017045 1.205
-0.039110884 -0.10041984 1.2080001
-0.037058037 -0.10058609 1.21
-0.035084814 -0.10100174 1.215
-0.033094093 -0.10141739 1.22
-0.031136626 -0.10199929 1.2270001
-0.029083777 -0.10233181 1.2310001
-0.027082553 -0.1029137 1.238
-0.024976328 -0.10316309 1.2410001
-0.022841224 -0.10332935 1.243
-0.12257766 -0.1027002 1.2620001
-0.1205598 -0.10286295 1.2640001
-0.11675601 -0.10147952 1.2470001
-0.11438989 -0.10131676 1.245
-0.11158012 -0.1007471 1.238
-0.10932515 -0.10066573 1.2370001
-0.10672715 -0.10025883 1.2320001
-0.10423152 -0.099933311 1.228
-0.10183302 -0.099689178 1.225
-0.099363662 -0.099363662 1.2210001
-0.096828662 -0.098956764 1.2160001
-0.094233289 -0.098468497 1.21
-0.091811173 -0.098142974 1.2060001
-0.089626193 -0.098061599 1.205
-0.087299451 -0.097817458 1.202
-0.0850541 -0.097654708 1.2
-0.082815744 -0.09749195 1.1980001
-0.080651753 -0.09741056 1.197
-0.07855691 -0.09741056 1.197
-0.07646206 -0.09741056 1.197
-0.074367203 -0.09741056 1.197
-0.072272353 -0.09741056 1.197
-0.070001617 -0.097166426 1.194
-0.06791202 -0.097166426 1.194
-0.065767296 -0.097085051 1.1930001
-0.063732818 -0.097166426 1.194
-0.061694849 -0.097247809 1.1950001
-0.059653375 -0.097329192 1.1960001
-0.057608396 -0.09741056 1.197
-0.055420794 -0.097247809 1.1950001
-0.053374074 -0.097329192 1.1960001
-0.051238094 -0.097247809 1.1950001
-0.049187873 -0.097329192 1.1960001
-0.04709477 -0.097329192 1.1960001
-0.045039292 -0.09741056 1.197
-0.043016195 -0.097573325 1.199
-0.040986102 -0.097736083 1.2010001
-0.038949002 -0.097898841 1.2030001
-0.036904905 -0.098061599 1.205
-0.03488268 -0.098305739 1.2080001
-0.032904208 -0.098712631 1.2130001
-0.030958991 -0.09928228 1.22
-0.028942019 -0.099689178 1.225
-0.026995052 -0.10042159 1.2340001
-0.024875699 -0.10058434 1.2360001
-0.022767721 -0.10082848 1.2390001
-0.020715749 -0.10139813 1.2460001
-0.12065519 -0.10073049 1.2650001
-0.11713052 -0.099615671 1.251
-0.11448176 -0.099217527 1.2460001
-0.11203077 -0.098978646 1.243
-0.10967866 -0.09881939 1.2410001
-0.10707366 -0.098421238 1.2360001
-0.10431641 -0.097863838 1.2290001
-0.10183302 -0.097545318 1.225
-0.09928228 -0.097147182 1.22
-0.096669406 -0.096669406 1.2140001
-0.094077535 -0.096191637 1.2080001
-0.091735043 -0.095952749 1.205
-0.089551821 -0.095873125 1.2040001
-0.08722683 -0.095634237 1.2010001
-0.0850541 -0.095554605 1.2
-0.082953997 -0.095554605 1.2
-0.080853894 -0.095554605 1.2
-0.078688167 -0.095474973 1.199
-0.076525934 -0.095395349 1.1980001
-0.074429341 -0.095395349 1.1980001
-0.072332732 -0.095395349 1.1980001
-0.07017751 -0.095315717 1.197
-0.068025775 -0.095236085 1.1960001
-0.065877549 -0.095156454 1.1950001
-0.063839577 -0.095236085 1.1960001
-0.061849732 -0.095395349 1.1980001
-0.059753127 -0.095395349 1.1980001
-0.05765653 -0.095395349 1.1980001
-0.05551355 -0.095315717 1.197
-0.053418696 -0.095315717 1.197
-0.051323846 -0.095315717 1.197
-0.049270123 -0.095395349 1.1980001
-0.047173522 -0.095395349 1.1980001
-0.045114547 -0.095474973 1.199
-0.043052074 -0.095554605 1.2
-0.041020226 -0.095713861 1.202
-0.038981378 -0.095873125 1.2040001
-0.036935531 -0.096032381 1.2060001
-0.03488268 -0.096191637 1.2080001
-0.03287708 -0.096510142 1.212
-0.030857489 -0.096828662 1.2160001
-0.028918395 -0.097465701 1.2240001
-0.026973173 -0.09818235 1.233
-0.02491595 -0.098580502 1.238
-0.022841224 -0.098978646 1.243
-0.020732375 -0.099297166 1.2470001
-0.12257766 -0.098282985 1.2620001
-0.12027366 -0.098205104 1.261
-0.11675601 -0.097114809 1.2470001
-0.11448176 -0.09703692 1.2460001
-0.11185052 -0.096647531 1.2410001
-0.10932515 -0.096336022 1.2370001
-0.10655388 -0.095790863 1.23
-0.10406176 -0.095479347 1.2260001
-0.10158364 -0.095167831 1.222
-0.099038139 -0.094778441 1.217
-0.096350886 -0.094233289 1.21
-0.093999654 -0.093999654 1.207
-0.09165892 -0.093766026 1.2040001
-0.089403048 -0.093610257 1.202
-0.08693631 -0.093220867 1.197
-0.08484146 -0.093220867 1.197
-0.08274661 -0.093220867 1.197
-0.080786511 -0.093376614 1.199
-0.078622542 -0.093298748 1.1980001
-0.076334298 -0.093065105 1.1950001
-0.074242949 -0.093065105 1.1950001
-0.072211981 -0.093142986 1.1960001
-0.070118874 -0.093142986 1.1960001
-0.06791202 -0.092987224 1.194
-0.065767296 -0.092909351 1.1930001
-0.063732818 -0.092987224 1.194
-0.061746474 -0.093142986 1.1960001
-0.059703253 -0.093220867 1.197
-0.057560276 -0.093142986 1.1960001
-0.055420794 -0.093065105 1.1950001
-0.053374074 -0.093142986 1.1960001
-0.051238094 -0.093065105 1.1950001
-0.049187873 -0.093142986 1.1960001
-0.04709477 -0.093142986 1.1960001
-0.045039292 -0.093220867 1.197
-0.042944442 -0.093220867 1.197
-0.040951975 -0.093454503 1.2
-0.038916621 -0.093610257 1.202
-0.036904905 -0.093843892 1.205
-0.03482493 -0.093921773 1.2060001
-0.032768577 -0.094077535 1.2080001
-0.030730607 -0.09431117 1.2110001
-0.028776636 -0.094856322 1.2180001
-0.02684192 -0.095557235 1.2270001
-0.024795195 -0.095946625 1.2320001
-0.022712594 -0.096258134 1.2360001
-0.020599369 -0.096491769 1.2390001
-0.12478626 -0.09607438 1.2620001
-0.12218913 -0.09576986 1.258
-0.11989216 -0.095693737 1.2570001
-0.11694326 -0.095084712 1.2490001
-0.11466552 -0.095008574 1.248
-0.11230116 -0.094856322 1.2460001
-0.1095019 -0.094323419 1.2390001
-0.10681377 -0.093866646 1.233
-0.10406176 -0.093333744 1.2260001
-0.10150052 -0.092953101 1.2210001
-0.099038139 -0.092648581 1.217
-0.096510142 -0.092267938 1.212
-0.094155416 -0.092039563 1.2090001
-0.091811173 -0.091811173 1.2060001
-0.089551821 -0.09165892 1.2040001
-0.087154202 -0.0913544 1.2
-0.084912345 -0.091202147 1.1980001
-0.082884863 -0.09127827 1.199
-0.080853894 -0.0913544 1.2
-0.078688167 -0.09127827 1.199
-0.076398179 -0.091049887 1.1960001
-0.07430508 -0.091049887 1.1960001
-0.072211981 -0.091049887 1.1960001
-0.07017751 -0.09112601 1.197
-0.067968898 -0.090973757 1.1950001
-0.065822415 -0.09089762 1.194
-0.063839577 -0.091049887 1.1960001
-0.061849732 -0.091202147 1.1980001
-0.059803005 -0.09127827 1.199
-0.057608396 -0.09112601 1.197
-0.055467173 -0.091049887 1.1960001
-0.053329445 -0.090973757 1.1950001
-0.051280972 -0.091049887 1.1960001
-0.049228996 -0.09112601 1.197
-0.047134146 -0.09112601 1.197
-0.045076922 -0.091202147 1.1980001
-0.042980321 -0.091202147 1.1980001
-0.040986102 -0.09143053 1.2010001
-0.038981378 -0.09165892 1.2040001
-0.036966152 -0.091887303 1.207
-0.034853805 -0.091887303 1.207
-0.032795705 -0.092039563 1.2090001
-0.030730607 -0.092191823 1.2110001
-0.028729383 -0.092572458 1.2160001
-0.026798164 -0.093257613 1.225
-0.024835447 -0.093942776 1.2340001
-0.022786098 -0.094399542 1.24
-0.020615991 -0.094399542 1.24
-0.1245885 -0.093717016 1.2600001
-0.12199487 -0.0934195 1.256
-0.1182707 -0.092229441 1.24
-0.11610059 -0.092229441 1.24
-0.11420612 -0.092452571 1.243
-0.11194064 -0.092378199 1.2420001
-0.10923676 -0.091931932 1.2360001
-0.10638063 -0.091336899 1.228
-0.10372224 -0.090890624 1.222
-0.10116799 -0.090518728 1.217
-0.098875389 -0.090369977 1.215
-0.096510142 -0.09014684 1.212
-0.09431117 -0.090072468 1.2110001
-0.091887303 -0.089774944 1.207
-0.089551821 -0.089551821 1.2040001
-0.087154202 -0.089254305 1.2
-0.08484146 -0.08903116 1.197
-0.082884863 -0.089179918 1.199
-0.080786511 -0.089179918 1.199
-0.078688167 -0.089179918 1.199
-0.076398179 -0.088956788 1.1960001
-0.074242949 -0.088882409 1.1950001
-0.072211981 -0.088956788 1.1960001
-0.070060246 -0.088882409 1.1950001
-0.067855142 -0.088733651 1.1930001
-0.065712161 -0.088659264 1.192
-0.063732818 -0.088808022 1.194
-0.061746474 -0.088956788 1.1960001
-0.059703253 -0.08903116 1.197
-0.057560276 -0.088956788 1.1960001
-0.055374417 -0.088808022 1.194
-0.053284816 -0.088808022 1.194
-0.051238094 -0.088882409 1.1950001
-0.049187873 -0.088956788 1.1960001
-0.04709477 -0.088956788 1.1960001
-0.045039292 -0.08903116 1.197
-0.042980321 -0.089105546 1.1980001
-0.040951975 -0.089254305 1.2
-0.038884249 -0.089328676 1.2010001
-0.036874276 -0.089551821 1.2040001
-0.034796052 -0.089626193 1.205
-0.032768577 -0.08984933 1.2080001
-0.030705228 -0.089998089 1.21
-0.028705757 -0.090369977 1.215
-0.026776291 -0.091039389 1.2240001
-0.024795195 -0.091634415 1.2320001
-0.022712594 -0.091931932 1.2360001
-0.020532863 -0.091857545 1.235
-0.12131497 -0.090712994 1.2490001
-0.11760303 -0.089550942 1.233
-0.11581971 -0.089841455 1.2370001
-0.11411425 -0.090204597 1.2420001
-0.11221103 -0.090422474 1.245
-0.10959027 -0.090059333 1.24
-0.10655388 -0.08933305 1.23
-0.10372224 -0.088752024 1.222
-0.10108487 -0.088316262 1.2160001
-0.098875389 -0.088243626 1.215
-0.096589774 -0.08809837 1.2130001
-0.094466932 -0.08809837 1.2130001
-0.092115685 -0.087880477 1.21
-0.08984933 -0.087735228 1.2080001
-0.087662593 -0.087662593 1.207
-0.085550241 -0.087662593 1.207
-0.083368771 -0.087589972 1.2060001
-0.081190787 -0.087517343 1.205
-0.078950681 -0.087372087 1.2030001
-0.07671757 -0.08722683 1.2010001
-0.074491456 -0.087081566 1.199
-0.072393112 -0.087081566 1.199
-0.070118874 -0.086863682 1.1960001
-0.067968898 -0.086791053 1.1950001
-0.065877549 -0.086791053 1.1950001
-0.063839577 -0.086863682 1.1960001
-0.061798099 -0.08693631 1.197
-0.059653375 -0.086863682 1.1960001
-0.057560276 -0.086863682 1.1960001
-0.055467173 -0.086863682 1.1960001
-0.053374074 -0.086863682 1.1960001
-0.051323846 -0.08693631 1.197
-0.049352378 -0.087154202 1.2
-0.047252279 -0.087154202 1.2
-0.045227427 -0.087299451 1.202
-0.043123826 -0.087299451 1.202
-0.041088481 -0.087444715 1.2040001
-0.038949002 -0.087372087 1.2030001
-0.036935531 -0.087589972 1.2060001
-0.03482493 -0.087589972 1.2060001
-0.032768577 -0.087735228 1.2080001
-0.030705228 -0.087880477 1.21
-0.028729383 -0.088316262 1.2160001
-0.026798164 -0.088969909 1.225
-0.024775069 -0.089405678 1.2310001
-0.022694217 -0.089696199 1.235
-0.020566117 -0.089841455 1.2370001
-0.12369858 -0.08866889 1.251
-0.12063507 -0.088030994 1.2420001
-0.11712614 -0.087038688 1.228
-0.11516429 -0.087180451 1.23
-0.11356296 -0.087605722 1.2360001
-0.11158012 -0.08774747 1.238
-0.10914838 -0.087534837 1.235
-0.10620737 -0.086896941 1.2260001
-0.10363737 -0.086542547 1.2210001
-0.10108487 -0.08618816 1.2160001
-0.098712631 -0.08597552 1.2130001
-0.096430518 -0.085833758 1.2110001
-0.094233289 -0.085762881 1.21
-0.091963433 -0.085621126 1.2080001
-0.089477435 -0.085266739 1.2030001
-0.087008946 -0.084912345 1.1980001
-0.084770583 -0.084770583 1.1960001
-0.08274661 -0.08484146 1.197
-0.080719136 -0.084912345 1.1980001
-0.078688167 -0.084983215 1.199
-0.076653697 -0.0850541 1.2
-0.074491456 -0.084983215 1.199
-0.072393112 -0.084983215 1.199
-0.070118874 -0.084770583 1.1960001
-0.067855142 -0.08455795 1.1930001
-0.065712161 -0.084487066 1.192
-0.063732818 -0.08462882 1.194
-0.061591592 -0.08455795 1.1930001
-0.059503745 -0.08455795 1.1930001
-0.057415891 -0.08455795 1.1930001
-0.055420794 -0.084699705 1.1950001
-0.053374074 -0.084770583 1.1960001
-0.051366724 -0.084912345 1.1980001
-0.049352378 -0.0850541 1.2
-0.047252279 -0.0850541 1.2
-0.045189805 -0.085124977 1.2010001
-0.043159705 -0.085266739 1.2030001
-0.041088481 -0.085337617 1.2040001
-0.038981378 -0.085337617 1.2040001
-0.036935531 -0.085479371 1.2060001
-0.034853805 -0.085550241 1.207
-0.032768577 -0.085621126 1.2080001
-0.030730607 -0.085833758 1.2110001
-0.028729383 -0.08618816 1.2160001
-0.026732536 -0.086613417 1.222
-0.02467444 -0.086896941 1.2260001
-0.02263909 -0.087322205 1.2320001
-0.020516239 -0.087463968 1.2340001
-0.11874759 -0.086064771 1.245
-0.11722414 -0.086548671 1.2520001
-0.11420612 -0.085926518 1.243
-0.11149 -0.085511744 1.2370001
-0.10906 -0.085304365 1.2340001
-0.10646725 -0.084958717 1.2290001
-0.10389201 -0.084613077 1.2240001
-0.10125113 -0.084198311 1.2180001
-0.098794013 -0.08392179 1.2140001
-0.096430518 -0.083714411 1.2110001
-0.094155416 -0.083576158 1.2090001
-0.091811173 -0.083368771 1.2060001
-0.089403048 -0.08309225 1.202
-0.087081566 -0.082884863 1.199
-0.08484146 -0.08274661 1.197
-0.082677484 -0.082677484 1.1960001
-0.080651753 -0.08274661 1.197
-0.078688167 -0.082884863 1.199
-0.07671757 -0.083023123 1.2010001
-0.074615717 -0.083023123 1.2010001
-0.072453491 -0.082953997 1.2
-0.07017751 -0.08274661 1.197
-0.067968898 -0.082608357 1.1950001
-0.065767296 -0.082470104 1.1930001
-0.063732818 -0.082539223 1.194
-0.061643217 -0.082539223 1.194
-0.059553616 -0.082539223 1.194
-0.057512149 -0.082608357 1.1950001
-0.055559926 -0.082815744 1.1980001
-0.05350795 -0.082884863 1.199
-0.05145248 -0.082953997 1.2
-0.049393509 -0.083023123 1.2010001
-0.047173522 -0.082815744 1.1980001
-0.045039292 -0.08274661 1.197
-0.042980321 -0.082815744 1.1980001
-0.040986102 -0.083023123 1.2010001
-0.038981378 -0.083230518 1.2040001
-0.036966152 -0.083437897 1.207
-0.034940433 -0.083645277 1.21
-0.03284996 -0.083714411 1.2110001
-0.030806733 -0.08392179 1.2140001
-0.028753011 -0.08412917 1.217
-0.026710661 -0.08440569 1.2210001
-0.024654312 -0.084682204 1.225
-0.022657467 -0.085235231 1.233
-0.020566117 -0.085511744 1.2370001
-0.11438989 -0.083885908 1.245
-0.11085909 -0.082875237 1.23
-0.10852973 -0.082740478 1.228
-0.10620737 -0.082605734 1.2260001
-0.10372224 -0.082336217 1.222
-0.10108487 -0.081931949 1.2160001
-0.098549873 -0.081595063 1.2110001
-0.096350886 -0.08152768 1.21
-0.093843892 -0.081190787 1.205
-0.09150666 -0.080988646 1.202
-0.089179918 -0.080786511 1.199
-0.087008946 -0.080719136 1.1980001
-0.084770583 -0.080584385 1.1960001
-0.082608357 -0.080517009 1.1950001
-0.080517009 -0.080517009 1.1950001
-0.07855691 -0.080651753 1.197
-0.07646206 -0.080651753 1.197
-0.074367203 -0.080651753 1.197
-0.072151601 -0.080517009 1.1950001
-0.069942996 -0.08038225 1.1930001
-0.067741394 -0.080247492 1.1910001
-0.065601908 -0.080180116 1.1900001
-0.06357269 -0.080247492 1.1910001
-0.061539963 -0.080314867 1.192
-0.059503745 -0.08038225 1.1930001
-0.057512149 -0.080517009 1.1950001
-0.055467173 -0.080584385 1.1960001
-0.053418696 -0.080651753 1.197
-0.051323846 -0.080651753 1.197
-0.049270123 -0.080719136 1.1980001
-0.047134146 -0.080651753 1.197
-0.045001671 -0.080584385 1.1960001
-0.04287269 -0.080517009 1.1950001
-0.040849593 -0.080651753 1.197
-0.038851872 -0.080853894 1.2
-0.03684365 -0.081056029 1.2030001
-0.034853805 -0.081325538 1.207
-0.032822832 -0.08152768 1.21
-0.03075598 -0.081662431 1.212
-0.028682133 -0.08179719 1.2140001
-0.026645033 -0.0820667 1.2180001
-0.02461406 -0.082403593 1.223
-0.02263909 -0.083010003 1.2320001
-0.11438989 -0.08170706 1.245
-0.11103936 -0.080853902 1.2320001
-0.10861811 -0.080657013 1.2290001
-0.10620737 -0.080460124 1.2260001
-0.10372224 -0.08019761 1.222
-0.10091861 -0.07967259 1.2140001
-0.098468497 -0.079410069 1.21
-0.096191637 -0.079278819 1.2080001
-0.093921773 -0.079147562 1.2060001
-0.09150666 -0.078885049 1.202
-0.089328676 -0.078819424 1.2010001
-0.087154202 -0.078753792 1.2
-0.084983215 -0.078688167 1.199
-0.082884863 -0.078688167 1.199
-0.080786511 -0.078688167 1.199
-0.078622542 -0.078622542 1.1980001
-0.076398179 -0.078491278 1.1960001
-0.074180819 -0.078360021 1.194
-0.07203085 -0.078294396 1.1930001
-0.069942996 -0.078294396 1.1930001
-0.067741394 -0.07816314 1.1910001
-0.065601908 -0.078097515 1.1900001
-0.063465931 -0.078031883 1.189
-0.061539963 -0.078228764 1.192
-0.059503745 -0.078294396 1.1930001
-0.057560276 -0.078491278 1.1960001
-0.05551355 -0.07855691 1.197
-0.053463325 -0.078622542 1.1980001
-0.051323846 -0.07855691 1.197
-0.049270123 -0.078622542 1.1980001
-0.047134146 -0.07855691 1.197
-0.045039292 -0.07855691 1.197
-0.042944442 -0.07855691 1.197
-0.040917847 -0.078688167 1.199
-0.038851872 -0.078753792 1.2
-0.036874276 -0.079016313 1.2040001
-0.03482493 -0.079147562 1.2060001
-0.032822832 -0.079410069 1.21
-0.030730607 -0.079475701 1.2110001
-0.028729383 -0.079803847 1.2160001
-0.026666909 -0.080000736 1.2190001
-0.024593934 -0.08019761 1.222
-0.022565586 -0.080591381 1.228
-0.11600697 -0.07914494 1.2390001
-0.11328734 -0.078761667 1.233
-0.11040844 -0.078250647 1.225
-0.10799944 -0.07805901 1.222
-0.10560096 -0.077867381 1.2190001
-0.10304322 -0.07754799 1.2140001
-0.10041984 -0.077164717 1.2080001
-0.098061599 -0.076973081 1.205
-0.095873125 -0.076909207 1.2040001
-0.093688145 -0.076845333 1.2030001
-0.09143053 -0.07671757 1.2010001
-0.089254305 -0.076653697 1.2
-0.087008946 -0.076525934 1.1980001
-0.084912345 -0.076525934 1.1980001
-0.082815744 -0.076525934 1.1980001
-0.080651753 -0.07646206 1.197
-0.078425653 -0.076334298 1.1950001
-0.076142661 -0.076142661 1.192
-0.073932312 -0.076014914 1.1900001
-0.071849711 -0.076014914 1.1900001
-0.069825739 -0.076078795 1.1910001
-0.067684516 -0.076014914 1.1900001
-0.065491654 -0.075887159 1.1880001
-0.063305803 -0.075759403 1.1860001
-0.06138508 -0.075951025 1.189
-0.05945386 -0.076142661 1.192
-0.057464015 -0.076270424 1.194
-0.055328041 -0.07620655 1.1930001
-0.053240187 -0.07620655 1.1930001
-0.051152341 -0.07620655 1.1930001
-0.049105614 -0.076270424 1.194
-0.04709477 -0.076398179 1.1960001
-0.045001671 -0.076398179 1.1960001
-0.042944442 -0.07646206 1.197
-0.04088372 -0.076525934 1.1980001
-0.038819492 -0.076589808 1.199
-0.036813021 -0.076781444 1.202
-0.03470942 -0.076781444 1.202
-0.032687198 -0.076973081 1.205
-0.0306291 -0.077100836 1.207
-0.028611254 -0.077356353 1.2110001
-0.026535653 -0.077484109 1.2130001
-0.024473179 -0.077675745 1.2160001
-0.022455331 -0.07805901 1.222
-0.11328734 -0.076603808 1.233
-0.11058871 -0.076231055 1.2270001
-0.10791107 -0.07585828 1.2210001
-0.10551433 -0.075671896 1.2180001
-0.10295833 -0.075361252 1.2130001
-0.10041984 -0.075050615 1.2080001
-0.098142974 -0.074926361 1.2060001
-0.095952749 -0.074864231 1.205
-0.093766026 -0.074802108 1.2040001
-0.09150666 -0.074677847 1.202
-0.089254305 -0.074553594 1.2
-0.087008946 -0.074429341 1.1980001
-0.084912345 -0.074429341 1.1980001
-0.08274661 -0.074367203 1.197
-0.080651753 -0.074367203 1.197
-0.078425653 -0.074242949 1.1950001
-0.07620655 -0.074118696 1.1930001
-0.073932312 -0.073932312 1.1900001
-0.071910091 -0.073994443 1.1910001
-0.06988436 -0.074056566 1.192
-0.067684516 -0.073932312 1.1900001
-0.065326273 -0.073621668 1.1850001
-0.063092291 -0.073435292 1.182
-0.061126944 -0.073559545 1.184
-0.059254356 -0.073808059 1.1880001
-0.057367764 -0.074056566 1.192
-0.055281661 -0.074056566 1.192
-0.053240187 -0.074118696 1.1930001
-0.051109459 -0.074056566 1.192
-0.049064487 -0.074118696 1.1930001
-0.04709477 -0.07430508 1.1960001
-0.045076922 -0.074429341 1.1980001
-0.043016195 -0.074491456 1.199
-0.040951975 -0.074553594 1.2
-0.038851872 -0.074553594 1.2
-0.036813021 -0.074677847 1.202
-0.034738299 -0.07473997 1.2030001
-0.032714326 -0.074926361 1.2060001
-0.0306291 -0.074988484 1.207
-0.028587628 -0.075174868 1.21
-0.026491901 -0.075236998 1.2110001
-0.024453053 -0.075485505 1.215
-0.022455331 -0.075920403 1.222
-0.11328734 -0.074445963 1.233
-0.11031832 -0.073902562 1.2240001
-0.10746918 -0.073419541 1.2160001
-0.10516782 -0.073298782 1.2140001
-0.10261882 -0.072996892 1.2090001
-0.10025358 -0.072815761 1.2060001
-0.097980224 -0.072695009 1.2040001
-0.095952749 -0.072755381 1.205
-0.093688145 -0.072634622 1.2030001
-0.0913544 -0.072453491 1.2
-0.089105546 -0.072332732 1.1980001
-0.08693631 -0.072272353 1.197
-0.08484146 -0.072272353 1.197
-0.082608357 -0.072151601 1.1950001
-0.080314867 -0.071970463 1.192
-0.078097515 -0.071849711 1.1900001
-0.076014914 -0.071849711 1.1900001
-0.073932312 -0.071849711 1.1900001
-0.071970463 -0.071970463 1.192
-0.06964986 -0.07172896 1.1880001
-0.067229487 -0.07136669 1.182
-0.064940378 -0.07112518 1.1780001
-0.062772021 -0.071004413 1.176
-0.06076555 -0.0710648 1.177
-0.058855332 -0.071245931 1.1800001
-0.057127129 -0.071668573 1.187
-0.055096157 -0.07172896 1.1880001
-0.053061679 -0.071789332 1.189
-0.050980829 -0.071789332 1.189
-0.048982237 -0.071910091 1.1910001
-0.047016013 -0.072091222 1.194
-0.044926412 -0.072091222 1.194
-0.042908568 -0.072211981 1.1960001
-0.040815469 -0.072211981 1.1960001
-0.038722366 -0.072211981 1.1960001
-0.036659889 -0.072272353 1.197
-0.034622792 -0.072393112 1.199
-0.032605819 -0.072574243 1.202
-0.030502219 -0.072574243 1.202
-0.028422246 -0.072634622 1.2030001
-0.026338769 -0.072695009 1.2040001
-0.024352424 -0.073057272 1.21
-0.022400206 -0.073600672 1.2190001
-0.11058871 -0.071936347 1.2270001
-0.10773432 -0.071467318 1.2190001
-0.10525444 -0.071232803 1.215
-0.1027037 -0.07093966 1.21
-0.10033671 -0.070763782 1.207
-0.098061599 -0.070646524 1.205
-0.096032381 -0.07070516 1.2060001
-0.093688145 -0.070529275 1.2030001
-0.09143053 -0.070412017 1.2010001
-0.089105546 -0.070236139 1.1980001
-0.087008946 -0.070236139 1.1980001
-0.084912345 -0.070236139 1.1980001
-0.082608357 -0.070060246 1.1950001
-0.08038225 -0.069942996 1.1930001
-0.078097515 -0.06976711 1.1900001
-0.076014914 -0.06976711 1.1900001
-0.073932312 -0.06976711 1.1900001
-0.071910091 -0.069825739 1.1910001
-0.069356717 -0.069356717 1.1830001
-0.066945098 -0.069004945 1.177
-0.064499363 -0.06859456 1.1700001
-0.062398378 -0.068535931 1.169
-0.06035253 -0.068535931 1.169
-0.058556069 -0.068829067 1.174
-0.056838367 -0.06923946 1.1810001
-0.055003401 -0.069532603 1.1860001
-0.053061679 -0.069708481 1.189
-0.050980829 -0.069708481 1.189
-0.048941109 -0.06976711 1.1900001
-0.046937261 -0.06988436 1.192
-0.044926412 -0.070001617 1.194
-0.042908568 -0.070118874 1.1960001
-0.040781341 -0.070060246 1.1950001
-0.038722366 -0.070118874 1.1960001
-0.036690518 -0.070236139 1.1980001
-0.034651671 -0.070353389 1.2
-0.032632947 -0.070529275 1.2030001
-0.030552974 -0.070587903 1.2040001
-0.028469495 -0.070646524 1.205
-0.026404398 -0.070763782 1.207
-0.024392674 -0.071056925 1.212
-0.022418579 -0.071525946 1.22
-0.11031832 -0.069618352 1.2240001
-0.10764594 -0.069277085 1.2180001
-0.10516782 -0.069049574 1.2140001
-0.10261882 -0.068765193 1.2090001
-0.10025358 -0.06859456 1.2060001
-0.097817458 -0.068367042 1.202
-0.095793493 -0.068423927 1.2030001
-0.093454503 -0.068253286 1.2
-0.0913544 -0.068253286 1.2
-0.08903116 -0.068082653 1.197
-0.08693631 -0.068082653 1.197
-0.084699705 -0.067968898 1.1950001
-0.082400963 -0.067798264 1.192
-0.080180116 -0.067684516 1.1900001
-0.077900626 -0.067513876 1.187
-0.075887159 -0.067570761 1.1880001
-0.073683806 -0.067456998 1.1860001
-0.07142707 -0.067286365 1.1830001
-0.069004945 -0.066945098 1.177
-0.06666071 -0.06666071 1.1720001
-0.064389102 -0.066433199 1.1680001
-0.062291626 -0.066376321 1.1670001
-0.06024928 -0.066376321 1.1670001
-0.058406439 -0.066603832 1.171
-0.056549601 -0.06683135 1.1750001
-0.054725137 -0.067115732 1.1800001
-0.052838545 -0.067343242 1.184
-0.050852202 -0.067456998 1.1860001
-0.048817724 -0.067513876 1.187
-0.046779756 -0.067570761 1.1880001
-0.044738278 -0.067627631 1.189
-0.042729184 -0.067741394 1.1910001
-0.040678959 -0.067798264 1.192
-0.038657613 -0.06791202 1.194
-0.036598638 -0.067968898 1.1950001
-0.034565039 -0.068082653 1.197
-0.03252444 -0.068196408 1.199
-0.030502219 -0.068367042 1.202
-0.028469495 -0.068537675 1.205
-0.026426272 -0.068708308 1.2080001
-0.024392674 -0.068935819 1.212
-0.022418579 -0.069390841 1.22
-0.11058871 -0.067641638 1.2270001
-0.10782269 -0.067255735 1.22
-0.10525444 -0.066980101 1.215
-0.10287345 -0.066814721 1.212
-0.10050297 -0.06664934 1.2090001
-0.097980224 -0.066373698 1.2040001
-0.095793493 -0.066318572 1.2030001
-0.093298748 -0.066042937 1.1980001
-0.09127827 -0.066098057 1.199
-0.088956788 -0.065932676 1.1960001
-0.086863682 -0.065932676 1.1960001
-0.08455795 -0.065767296 1.1930001
-0.082331844 -0.065657042 1.1910001
-0.080180116 -0.065601908 1.1900001
-0.078031883 -0.065546781 1.189
-0.075887159 -0.065491654 1.1880001
-0.073497415 -0.06521602 1.1830001
-0.071245931 -0.065050632 1.1800001
-0.069063574 -0.064940378 1.1780001
-0.066888221 -0.064830117 1.176
-0.064554483 -0.064554483 1.171
-0.062398378 -0.064444229 1.169
-0.060404163 -0.064499363 1.1700001
-0.058556069 -0.064719863 1.174
-0.056645852 -0.064885251 1.177
-0.054678757 -0.064995505 1.179
-0.052749291 -0.065160885 1.182
-0.050809324 -0.065326273 1.1850001
-0.048817724 -0.065436527 1.187
-0.046740375 -0.065436527 1.187
-0.044738278 -0.065546781 1.189
-0.042729184 -0.065657042 1.1910001
-0.040713087 -0.065767296 1.1930001
-0.038689986 -0.065877549 1.1950001
-0.036659889 -0.065987803 1.197
-0.034593917 -0.066042937 1.1980001
-0.032578696 -0.066208318 1.2010001
-0.030552974 -0.066373698 1.2040001
-0.028516747 -0.066539079 1.207
-0.026491901 -0.066759594 1.2110001
-0.024432927 -0.066924982 1.2140001
-0.022455331 -0.067365989 1.222
-0.10773432 -0.065067261 1.2190001
-0.10516782 -0.064800374 1.2140001
-0.10287345 -0.064693615 1.212
-0.10050297 -0.064533487 1.2090001
-0.097980224 -0.0642666 1.2040001
-0.095634237 -0.064106472 1.2010001
-0.093220867 -0.063892946 1.197
-0.09112601 -0.063892946 1.197
-0.088808022 -0.063732818 1.194
-0.086645797 -0.063679442 1.1930001
-0.084274426 -0.063465931 1.189
-0.082124457 -0.063412555 1.1880001
-0.079910599 -0.063305803 1.1860001
-0.077835001 -0.063305803 1.1860001
-0.075631641 -0.063199043 1.184
-0.073311031 -0.062985532 1.1800001
-0.0710648 -0.062825404 1.177
-0.069004945 -0.062825404 1.177
-0.066888221 -0.062772021 1.176
-0.064719863 -0.062665261 1.174
-0.062611893 -0.062611893 1.1730001
-0.060610667 -0.062665261 1.174
-0.058655821 -0.062772021 1.176
-0.056645852 -0.062825404 1.177
-0.054539625 -0.062772021 1.176
-0.052615408 -0.062932156 1.179
-0.050723568 -0.063145667 1.1830001
-0.048776601 -0.063305803 1.1860001
-0.046661623 -0.063252419 1.1850001
-0.044625401 -0.063305803 1.1860001
-0.042621553 -0.063412555 1.1880001
-0.040644836 -0.06357269 1.1910001
-0.038625237 -0.063679442 1.1930001
-0.036568012 -0.063732818 1.194
-0.034536164 -0.063839577 1.1960001
-0.032497313 -0.063946329 1.1980001
-0.030502219 -0.064159833 1.202
-0.028469495 -0.064319976 1.205
-0.026448149 -0.064533487 1.2090001
-0.024392674 -0.064693615 1.212
-0.022455331 -0.065227389 1.222
-0.10826459 -0.063243672 1.225
-0.10525444 -0.062727399 1.215
-0.10295833 -0.062624142 1.2130001
-0.10050297 -0.062417638 1.2090001
-0.098061599 -0.062211119 1.205
