# .PCD v0.7 - Point Cloud Data file format
VERSION 0.7
FIELDS x y z
SIZE 4 4 4
TYPE F F F
COUNT 1 1 1
WIDTH 1424
HEIGHT 1
VIEWPOINT 0 0 0 1 0 0 0
POINTS 1424
DATA ascii
-0.074429341 -0.099588551 1.1980001
-0.072272353 -0.099505417 1.197
-0.07029476 -0.099671669 1.199
-0.068253286 -0.09975481 1.2
-0.066263437 -0.099921063 1.202
-0.0642666 -0.10008733 1.2040001
-0.062211119 -0.10017045 1.205
-0.060152147 -0.10025358 1.2060001
-0.057945296 -0.10008733 1.2040001
-0.055930946 -0.10025358 1.2060001
-0.053864967 -0.10033671 1.207
-0.051881246 -0.10058609 1.21
-0.049640264 -0.10033671 1.207
-0.04748854 -0.10025358 1.2060001
-0.045528442 -0.10058609 1.21
-0.043518472 -0.10083549 1.2130001
-0.041293241 -0.10058609 1.21
-0.039078508 -0.10033671 1.207
-0.037058037 -0.10058609 1.21
-0.035200324 -0.10133426 1.2190001
-0.13206224 -0.099851936 1.2270001
-0.12927961 -0.099363662 1.2210001
-0.12672623 -0.099038139 1.217
-0.12449399 -0.098956764 1.2160001
-0.12176212 -0.098468497 1.21
-0.11944676 -0.098305739 1.2080001
-0.11704126 -0.098061599 1.205
-0.11483704 -0.097980224 1.2040001
-0.11244904 -0.097736083 1.2010001
-0.1103472 -0.097736083 1.2010001
-0.10815521 -0.097654708 1.2
-0.10596672 -0.097573325 1.199
-0.10360849 -0.097329192 1.1960001
-0.10143051 -0.097247809 1.1950001
-0.099172905 -0.097085051 1.1930001
-0.097085051 -0.097085051 1.1930001
-0.094837949 -0.096922293 1.1910001
-0.092675716 -0.096840918 1.1900001
-0.090516984 -0.096759535 1.189
-0.088510513 -0.096840918 1.1900001
-0.086355284 -0.096759535 1.189
-0.084203556 -0.09667816 1.1880001
-0.082055323 -0.096596777 1.187
-0.080045357 -0.09667816 1.1880001
-0.07816314 -0.096922293 1.1910001
-0.07620655 -0.097085051 1.1930001
-0.074180819 -0.097166426 1.194
-0.072151601 -0.097247809 1.1950001
-0.07017751 -0.09741056 1.197
-0.068196408 -0.097573325 1.199
-0.066098057 -0.097573325 1.199
-0.064159833 -0.097817458 1.202
-0.062056236 -0.097817458 1.202
-0.060052395 -0.097980224 1.2040001
-0.057800915 -0.097736083 1.2010001
-0.055838194 -0.097980224 1.2040001
-0.053775713 -0.098061599 1.205
-0.051881246 -0.098468497 1.21
-0.049599141 -0.098142974 1.2060001
-0.04748854 -0.098142974 1.2060001
-0.045302682 -0.097980224 1.2040001
-0.043374967 -0.098387122 1.2090001
-0.041088481 -0.097980224 1.2040001
-0.038981378 -0.097980224 1.2040001
-0.036782399 -0.097736083 1.2010001
-0.034998186 -0.098631248 1.212
-0.13195461 -0.097624958 1.2260001
-0.12917373 -0.097147182 1.22
-0.12683035 -0.096987925 1.2180001
-0.12469876 -0.096987925 1.2180001
-0.12216464 -0.096669406 1.2140001
-0.11974339 -0.096430518 1.2110001
-0.11723552 -0.096111998 1.207
-0.11493241 -0.095952749 1.205
-0.11272994 -0.095873125 1.2040001
-0.11053095 -0.095793493 1.2030001
-0.10815521 -0.095554605 1.2
-0.10587835 -0.095395349 1.1980001
-0.10352186 -0.095156454 1.1950001
-0.10134563 -0.095076822 1.194
-0.099172905 -0.094997197 1.1930001
-0.097166426 -0.095076822 1.194
-0.094917566 -0.094917566 1.192
-0.092753597 -0.094837949 1.1910001
-0.090593114 -0.094758317 1.1900001
-0.088510513 -0.094758317 1.1900001
-0.086355284 -0.094678678 1.189
-0.084132679 -0.094519429 1.187
-0.082124457 -0.094599061 1.1880001
-0.080180116 -0.094758317 1.1900001
-0.078228764 -0.094917566 1.192
-0.076142661 -0.094917566 1.192
-0.074118696 -0.094997197 1.1930001
-0.072211981 -0.095236085 1.1960001
-0.07029476 -0.095474973 1.199
-0.068310164 -0.095634237 1.2010001
-0.066208318 -0.095634237 1.2010001
-0.064213216 -0.095793493 1.2030001
-0.062107868 -0.095793493 1.2030001
-0.060152147 -0.096032381 1.2060001
-0.057993416 -0.095952749 1.205
-0.055977318 -0.096111998 1.207
-0.053864967 -0.096111998 1.207
-0.051881246 -0.096350886 1.21
-0.0498459 -0.096510142 1.212
-0.047606673 -0.096271269 1.2090001
-0.045340311 -0.095952749 1.205
-0.043339089 -0.096191637 1.2080001
-0.041259114 -0.096271269 1.2090001
-0.039175637 -0.096350886 1.21
-0.037058037 -0.096350886 1.21
-0.035200324 -0.097067557 1.2190001
-0.1342096 -0.095557235 1.2270001
-0.13130882 -0.095012076 1.22
-0.12875021 -0.09470056 1.2160001
-0.12651797 -0.094622679 1.215
-0.12449399 -0.09470056 1.2160001
-0.12216464 -0.094544813 1.2140001
-0.11974339 -0.09431117 1.2110001
-0.11723552 -0.093999654 1.207
-0.11493241 -0.093843892 1.205
-0.11254267 -0.093610257 1.202
-0.11025532 -0.093454503 1.2
-0.10788482 -0.093220867 1.197
-0.1057016 -0.093142986 1.1960001
-0.10334861 -0.092909351 1.1930001
-0.10117587 -0.09283147 1.192
-0.099089772 -0.09283147 1.192
-0.097085051 -0.092909351 1.1930001
-0.094837949 -0.092753597 1.1910001
-0.092597827 -0.092597827 1.189
-0.090364724 -0.09244208 1.187
-0.088287376 -0.09244208 1.187
-0.086064771 -0.092286319 1.1850001
-0.083849162 -0.092130564 1.1830001
-0.081847943 -0.092208438 1.184
-0.079977974 -0.09244208 1.187
-0.078097515 -0.092675716 1.1900001
-0.076078795 -0.092753597 1.1910001
-0.073932312 -0.092675716 1.1900001
-0.071910091 -0.092753597 1.1910001
-0.069942996 -0.092909351 1.1930001
-0.068139531 -0.093298748 1.1980001
-0.066098057 -0.093376614 1.199
-0.064159833 -0.093610257 1.202
-0.062107868 -0.093688145 1.2030001
-0.060152147 -0.093921773 1.2060001
-0.057945296 -0.093766026 1.2040001
-0.055791814 -0.093688145 1.2030001
-0.053686462 -0.093688145 1.2030001
-0.051709745 -0.093921773 1.2060001
-0.049804773 -0.09431117 1.2110001
-0.047527913 -0.093999654 1.207
-0.045189805 -0.093532383 1.2010001
-0.043267336 -0.093921773 1.2060001
-0.041259114 -0.094155416 1.2090001
-0.03933752 -0.094622679 1.215
-0.03727242 -0.094778441 1.217
-0.035315827 -0.095245719 1.223
-0.13431896 -0.093486004 1.228
-0.13120119 -0.092800848 1.2190001
-0.12875021 -0.092572458 1.2160001
-0.1266221 -0.092572458 1.2160001
-0.12459638 -0.092648581 1.217
-0.12226526 -0.092496328 1.215
-0.11994115 -0.092344075 1.2130001
-0.11762404 -0.092191823 1.2110001
-0.11540931 -0.092115685 1.21
-0.11282355 -0.091735043 1.205
-0.11043906 -0.09150666 1.202
-0.10806508 -0.09127827 1.199
-0.10587835 -0.091202147 1.1980001
-0.10352186 -0.090973757 1.1950001
-0.10134563 -0.09089762 1.194
-0.099256024 -0.09089762 1.194
-0.097247809 -0.090973757 1.1950001
-0.094917566 -0.090745367 1.192
-0.092519961 -0.090440862 1.1880001
-0.090288602 -0.090288602 1.1860001
-0.088213004 -0.090288602 1.1860001
-0.086064771 -0.090212472 1.1850001
-0.083920039 -0.090136342 1.184
-0.08191707 -0.090212472 1.1850001
-0.079977974 -0.090364724 1.187
-0.078097515 -0.090593114 1.1900001
-0.076078795 -0.090669252 1.1910001
-0.073932312 -0.090593114 1.1900001
-0.071910091 -0.090669252 1.1910001
-0.069942996 -0.090821505 1.1930001
-0.068082653 -0.09112601 1.197
-0.066208318 -0.09143053 1.2010001
-0.064213216 -0.091582783 1.2030001
-0.062211119 -0.091735043 1.205
-0.060202025 -0.091887303 1.207
-0.058089674 -0.091887303 1.207
-0.055791814 -0.091582783 1.2030001
-0.053686462 -0.091582783 1.2030001
-0.051623989 -0.09165892 1.2040001
-0.049804773 -0.092191823 1.2110001
-0.047527913 -0.091887303 1.207
-0.045415562 -0.091887303 1.207
-0.043374967 -0.092039563 1.2090001
-0.041224986 -0.091963433 1.2080001
-0.039208014 -0.092191823 1.2110001
-0.037303045 -0.092724718 1.2180001
-0.035489086 -0.093562134 1.2290001
-0.1342096 -0.091262527 1.2270001
-0.13120119 -0.090667494 1.2190001
-0.12864432 -0.090369977 1.215
-0.12641385 -0.090295605 1.2140001
-0.12428924 -0.090295605 1.2140001
-0.12186275 -0.090072468 1.2110001
-0.11964452 -0.089998089 1.21
-0.11742978 -0.08992371 1.2090001
-0.11531393 -0.08992371 1.2090001
-0.11282355 -0.089626193 1.205
-0.11025532 -0.089254305 1.2
-0.10788482 -0.08903116 1.197
-0.1057016 -0.088956788 1.1960001
-0.10334861 -0.088733651 1.1930001
-0.10117587 -0.088659264 1.192
-0.099089772 -0.088659264 1.192
-0.097166426 -0.088808022 1.194
-0.094758317 -0.088510513 1.1900001
-0.09244208 -0.088287376 1.187
-0.090212472 -0.088138625 1.1850001
-0.088138625 -0.088138625 1.1850001
-0.085992143 -0.088064238 1.184
-0.083778284 -0.08791548 1.182
-0.081778817 -0.087989867 1.1830001
-0.079843223 -0.088138625 1.1850001
-0.077900626 -0.088287376 1.187
-0.075887159 -0.088361755 1.1880001
-0.073870182 -0.088436134 1.189
-0.071789332 -0.088436134 1.189
-0.06976711 -0.088510513 1.1900001
-0.067798264 -0.088659264 1.192
-0.065932676 -0.088956788 1.1960001
-0.064053088 -0.089254305 1.2
-0.062056236 -0.089403048 1.202
-0.060102273 -0.089626193 1.205
-0.057945296 -0.089551821 1.2040001
-0.055606302 -0.089179918 1.199
-0.053552579 -0.089254305 1.2
-0.051409598 -0.089179918 1.199
-0.049640264 -0.089774944 1.207
-0.047409784 -0.089551821 1.2040001
-0.045566071 -0.090072468 1.2110001
-0.043626104 -0.090444356 1.2160001
-0.04139562 -0.090221219 1.2130001
-0.03933752 -0.090369977 1.215
-0.037486807 -0.091039389 1.2240001
-0.13464712 -0.089405678 1.2310001
-0.13152409 -0.088752024 1.222
-0.12906784 -0.088534147 1.2190001
-0.12651797 -0.088243626 1.215
-0.12418686 -0.08809837 1.2130001
-0.12186275 -0.087953113 1.2110001
-0.11974339 -0.087953113 1.2110001
-0.1175269 -0.087880477 1.21
-0.11531393 -0.087807857 1.2090001
-0.11282355 -0.087517343 1.205
-0.1103472 -0.08722683 1.2010001
-0.10815521 -0.087154202 1.2
-0.10587835 -0.087008946 1.1980001
-0.10360849 -0.086863682 1.1960001
-0.10143051 -0.086791053 1.1950001
-0.099256024 -0.086718418 1.194
-0.097247809 -0.086791053 1.1950001
-0.094917566 -0.086573169 1.192
-0.092909351 -0.086645797 1.1930001
-0.090364724 -0.086210027 1.187
-0.088064238 -0.085992143 1.184
-0.085919522 -0.085919522 1.1830001
-0.083920039 -0.085992143 1.184
-0.082055323 -0.086210027 1.187
-0.079977974 -0.086210027 1.187
-0.077900626 -0.086210027 1.187
-0.075887159 -0.086282656 1.1880001
-0.073870182 -0.086355284 1.189
-0.071849711 -0.086427912 1.1900001
-0.06988436 -0.086573169 1.192
-0.06791202 -0.086718418 1.194
-0.065987803 -0.08693631 1.197
-0.064053088 -0.087154202 1.2
-0.062107868 -0.087372087 1.2030001
-0.060202025 -0.087662593 1.207
-0.058137801 -0.087735228 1.2080001
-0.055745434 -0.087299451 1.202
-0.053597208 -0.08722683 1.2010001
-0.051409598 -0.087081566 1.199
-0.049640264 -0.087662593 1.207
-0.047409784 -0.087444715 1.2040001
-0.045603696 -0.088025734 1.212
-0.043733735 -0.088534147 1.2190001
-0.041702759 -0.088752024 1.222
-0.039693665 -0.089042537 1.2260001
-0.037670564 -0.08933305 1.23
-0.13431896 -0.087038688 1.228
-0.13152409 -0.086613417 1.222
-0.12906784 -0.086400792 1.2190001
-0.12641385 -0.086046398 1.2140001
-0.1239821 -0.085833758 1.2110001
-0.1216615 -0.085692003 1.2090001
-0.11934788 -0.085550241 1.207
-0.1171384 -0.085479371 1.2060001
-0.11493241 -0.085408486 1.205
-0.11263631 -0.085266739 1.2030001
-0.11016342 -0.084983215 1.199
-0.10788482 -0.08484146 1.197
-0.10561322 -0.084699705 1.1950001
-0.10343523 -0.08462882 1.194
-0.10126076 -0.08455795 1.1930001
-0.099172905 -0.08455795 1.1930001
-0.097166426 -0.08462882 1.194
-0.094917566 -0.084487066 1.192
-0.093065105 -0.084699705 1.1950001
-0.090364724 -0.084132679 1.187
-0.087989867 -0.083849162 1.1830001
-0.085774265 -0.083707415 1.1810001
-0.083849162 -0.083849162 1.1830001
-0.082055323 -0.084132679 1.187
-0.079977974 -0.084132679 1.187
-0.077966258 -0.084203556 1.1880001
-0.075823277 -0.084132679 1.187
-0.073808059 -0.084203556 1.1880001
-0.07172896 -0.084203556 1.1880001
-0.06976711 -0.084345318 1.1900001
-0.067741394 -0.084416196 1.1910001
-0.065822415 -0.08462882 1.194
-0.063839577 -0.084770583 1.1960001
-0.062056236 -0.085195847 1.202
-0.060102273 -0.085408486 1.205
-0.058089674 -0.085550241 1.207
-0.055652682 -0.0850541 1.2
-0.05350795 -0.084983215 1.199
-0.051280972 -0.084770583 1.1960001
-0.049475759 -0.085266739 1.2030001
-0.047370408 -0.085266739 1.2030001
-0.045566071 -0.085833758 1.2110001
-0.043841362 -0.086613417 1.222
-0.04211228 -0.087463968 1.2340001
-0.13702372 -0.085235231 1.233
-0.1342096 -0.084820464 1.2270001
-0.13173935 -0.084613077 1.2240001
-0.12927961 -0.08440569 1.2210001
-0.12672623 -0.08412917 1.217
-0.12428924 -0.08392179 1.2140001
-0.12196337 -0.08378353 1.212
-0.11964452 -0.083645277 1.21
-0.11733266 -0.083507024 1.2080001
-0.11521856 -0.083507024 1.2080001
-0.11282355 -0.083299637 1.205
-0.11043906 -0.08309225 1.202
-0.10797495 -0.082815744 1.1980001
-0.1057016 -0.082677484 1.1960001
-0.10360849 -0.082677484 1.1960001
-0.10134563 -0.082539223 1.194
-0.099339157 -0.082608357 1.1950001
-0.097247809 -0.082608357 1.1950001
-0.094997197 -0.082470104 1.1930001
-0.09283147 -0.082400963 1.192
-0.090212472 -0.08191707 1.1850001
-0.08791548 -0.08170969 1.182
-0.08570163 -0.08157143 1.1800001
-0.083849162 -0.081778817 1.1830001
-0.082124457 -0.082124457 1.1880001
-0.080180116 -0.08226271 1.1900001
-0.07816314 -0.082331844 1.1910001
-0.076078795 -0.082331844 1.1910001
-0.073994443 -0.082331844 1.1910001
-0.071910091 -0.082331844 1.1910001
-0.069942996 -0.082470104 1.1930001
-0.06791202 -0.082539223 1.194
-0.065932676 -0.082677484 1.1960001
-0.063946329 -0.082815744 1.1980001
-0.062107868 -0.083161376 1.2030001
-0.060152147 -0.083368771 1.2060001
-0.058137801 -0.083507024 1.2080001
-0.055791814 -0.083161376 1.2030001
-0.053641833 -0.08309225 1.202
-0.05145248 -0.082953997 1.2
-0.049516886 -0.083230518 1.2040001
-0.04748854 -0.083368771 1.2060001
-0.045528442 -0.083645277 1.21
-0.043697856 -0.084198311 1.2180001
-0.041736886 -0.084543951 1.223
-0.039952677 -0.085304365 1.2340001
-0.1365792 -0.082807869 1.2290001
-0.13377206 -0.082403593 1.223
-0.13130882 -0.082201459 1.22
-0.12906784 -0.082134083 1.2190001
-0.12651797 -0.081864566 1.215
-0.12418686 -0.081729807 1.2130001
-0.12176212 -0.08152768 1.21
-0.11944676 -0.081392922 1.2080001
-0.1171384 -0.08125817 1.2060001
-0.11512317 -0.081325538 1.207
-0.11282355 -0.081190787 1.205
-0.11025532 -0.080853894 1.2
-0.10779469 -0.080584385 1.1960001
-0.10543646 -0.08038225 1.1930001
-0.10326197 -0.080314867 1.192
-0.10117587 -0.080314867 1.192
-0.099172905 -0.08038225 1.1930001
-0.097166426 -0.080449626 1.194
-0.094837949 -0.080247492 1.1910001
-0.092519961 -0.080045357 1.1880001
-0.090136342 -0.07977584 1.184
-0.087989867 -0.079708464 1.1830001
-0.085846886 -0.079641081 1.182
-0.083849162 -0.079708464 1.1830001
-0.08191707 -0.079843223 1.1850001
-0.080045357 -0.080045357 1.1880001
-0.078097515 -0.080180116 1.1900001
-0.076078795 -0.080247492 1.1910001
-0.073932312 -0.080180116 1.1900001
-0.071849711 -0.080180116 1.1900001
-0.069825739 -0.080247492 1.1910001
-0.067798264 -0.080314867 1.192
-0.065877549 -0.080517009 1.1950001
-0.063839577 -0.080584385 1.1960001
-0.061952986 -0.080853894 1.2
-0.059952635 -0.080988646 1.202
-0.057945296 -0.081123412 1.2040001
-0.055745434 -0.080988646 1.202
-0.053597208 -0.080921277 1.2010001
-0.05145248 -0.080853894 1.2
-0.049475759 -0.081056029 1.2030001
-0.047724798 -0.081662431 1.212
-0.045829456 -0.0820667 1.2180001
-0.043805487 -0.082268842 1.2210001
-0.041498002 -0.081931949 1.2160001
-0.039628908 -0.082470976 1.2240001
-0.13702372 -0.080919527 1.233
-0.13399082 -0.080394492 1.225
-0.13130882 -0.080066353 1.22
-0.12875021 -0.079803847 1.2160001
-0.12641385 -0.07967259 1.2140001
-0.12418686 -0.079606958 1.2130001
-0.12196337 -0.079541326 1.212
-0.11974339 -0.079475701 1.2110001
-0.11742978 -0.079344451 1.2090001
-0.11531393 -0.079344451 1.2090001
-0.11263631 -0.078950681 1.2030001
-0.11007155 -0.078622542 1.1980001
-0.10761443 -0.078360021 1.194
-0.10552483 -0.078360021 1.194
-0.10343523 -0.078360021 1.194
-0.10126076 -0.078294396 1.1930001
-0.099256024 -0.078360021 1.194
-0.097085051 -0.078294396 1.1930001
-0.094837949 -0.07816314 1.1910001
-0.092597827 -0.078031883 1.189
-0.090288602 -0.077835001 1.1860001
-0.088138625 -0.077769376 1.1850001
-0.086064771 -0.077769376 1.1850001
-0.083990924 -0.077769376 1.1850001
-0.082055323 -0.077900626 1.187
-0.080112733 -0.078031883 1.189
-0.078097515 -0.078097515 1.1900001
-0.076142661 -0.078228764 1.192
-0.073994443 -0.07816314 1.1910001
-0.071910091 -0.07816314 1.1910001
-0.06988436 -0.078228764 1.192
-0.067855142 -0.078294396 1.1930001
-0.065932676 -0.078491278 1.1960001
-0.063839577 -0.078491278 1.1960001
-0.061849732 -0.078622542 1.1980001
-0.059902765 -0.078819424 1.2010001
-0.057945296 -0.079016313 1.2040001
-0.055977318 -0.079213187 1.207
-0.053820346 -0.079147562 1.2060001
-0.051666863 -0.07908193 1.205
-0.049640264 -0.079213187 1.207
-0.047882307 -0.079803847 1.2160001
-0.045942336 -0.080131985 1.2210001
-0.043948993 -0.080394492 1.225
-0.041634504 -0.080066353 1.22
-0.040017426 -0.081116408 1.2360001
-0.033880755 -0.081969574 1.2490001
-0.1365792 -0.078506164 1.2290001
-0.13366269 -0.07805901 1.222
-0.13098593 -0.077739619 1.217
-0.12864432 -0.077611856 1.215
-0.12630971 -0.077484109 1.2130001
-0.12418686 -0.077484109 1.2130001
-0.12186275 -0.077356353 1.2110001
-0.11964452 -0.077292472 1.21
-0.11742978 -0.077228598 1.2090001
-0.11502779 -0.077036969 1.2060001
-0.11226178 -0.076589808 1.199
-0.10961216 -0.07620655 1.1930001
-0.10734405 -0.076078795 1.1910001
-0.10517132 -0.076014914 1.1900001
-0.10317535 -0.076078795 1.1910001
-0.101091 -0.076078795 1.1910001
-0.098923512 -0.076014914 1.1900001
-0.096840918 -0.076014914 1.1900001
-0.094678678 -0.075951025 1.189
-0.092519961 -0.075887159 1.1880001
-0.090364724 -0.075823277 1.187
-0.088213004 -0.075759403 1.1860001
-0.086137407 -0.075759403 1.1860001
-0.083920039 -0.075631641 1.184
-0.081847943 -0.075631641 1.184
-0.079843223 -0.075695522 1.1850001
-0.077900626 -0.075823277 1.187
-0.075887159 -0.075887159 1.1880001
-0.073745921 -0.075823277 1.187
-0.071668573 -0.075823277 1.187
-0.06964986 -0.075887159 1.1880001
-0.067741394 -0.076078795 1.1910001
-0.065822415 -0.076270424 1.194
-0.063786201 -0.076334298 1.1950001
-0.061694849 -0.076334298 1.1950001
-0.059703253 -0.07646206 1.197
-0.057849035 -0.076781444 1.202
-0.055884566 -0.076973081 1.205
-0.053775713 -0.076973081 1.205
-0.051709745 -0.077036969 1.2060001
-0.049599141 -0.077036969 1.2060001
-0.047803555 -0.07754799 1.2140001
-0.045867085 -0.077867381 1.2190001
-0.044020746 -0.078378402 1.2270001
-0.04197577 -0.078570031 1.23
-0.040082179 -0.079081059 1.238
-0.038068708 -0.079400443 1.243
-0.035806727 -0.079208814 1.24
-0.033636618 -0.079208814 1.24
-0.031644151 -0.07965596 1.2470001
-0.13669033 -0.076417431 1.23
-0.13399082 -0.076106787 1.225
-0.13141645 -0.07585828 1.2210001
-0.12896197 -0.075671896 1.2180001
-0.12651797 -0.075485505 1.215
-0.12439161 -0.075485505 1.215
-0.12206401 -0.075361252 1.2130001
-0.11994115 -0.075361252 1.2130001
-0.11762404 -0.075236998 1.2110001
-0.11493241 -0.074864231 1.205
-0.11198089 -0.07430508 1.1960001
-0.10952027 -0.074056566 1.192
-0.10734405 -0.073994443 1.1910001
-0.10534807 -0.074056566 1.192
-0.10326197 -0.074056566 1.192
-0.101091 -0.073994443 1.1910001
-0.098840386 -0.073870182 1.189
-0.096759535 -0.073870182 1.189
-0.094678678 -0.073870182 1.189
-0.092597827 -0.073870182 1.189
-0.090516984 -0.073870182 1.189
-0.088361755 -0.073808059 1.1880001
-0.086282656 -0.073808059 1.1880001
-0.084061801 -0.073683806 1.1860001
-0.081986204 -0.073683806 1.1860001
-0.079910599 -0.073683806 1.1860001
-0.077835001 -0.073683806 1.1860001
-0.075823277 -0.073745921 1.187
-0.073745921 -0.073745921 1.187
-0.07172896 -0.073808059 1.1880001
-0.069708481 -0.073870182 1.189
-0.067798264 -0.074056566 1.192
-0.065822415 -0.074180819 1.194
-0.063786201 -0.074242949 1.1950001
-0.061694849 -0.074242949 1.1950001
-0.059753127 -0.074429341 1.1980001
-0.057897162 -0.07473997 1.2030001
-0.055930946 -0.074926361 1.2060001
-0.053820346 -0.074926361 1.2060001
-0.051752616 -0.074988484 1.207
-0.049681395 -0.075050615 1.2080001
-0.047882307 -0.075547643 1.2160001
-0.045829456 -0.075671896 1.2180001
-0.044020746 -0.076231055 1.2270001
-0.04211228 -0.076665945 1.2340001
-0.040017426 -0.076790199 1.2360001
-0.038007457 -0.077100843 1.2410001
-0.035835601 -0.077100843 1.2410001
-0.033745125 -0.077287227 1.2440001
-0.031669524 -0.077535734 1.248
-0.13906871 -0.074385591 1.2320001
-0.13646808 -0.074144073 1.228
-0.13399082 -0.073962934 1.225
-0.13141645 -0.073721431 1.2210001
-0.12896197 -0.073540293 1.2180001
-0.12651797 -0.073359154 1.215
-0.12428924 -0.073298782 1.2140001
-0.12196337 -0.073178023 1.212
-0.11964452 -0.073057272 1.21
-0.11733266 -0.072936513 1.2080001
-0.11445551 -0.072453491 1.2
-0.11160637 -0.071970463 1.192
-0.10924463 -0.071789332 1.189
-0.10716379 -0.071789332 1.189
-0.10508294 -0.071789332 1.189
-0.10291546 -0.07172896 1.1880001
-0.10083636 -0.07172896 1.1880001
-0.098591007 -0.071608201 1.1860001
-0.096596777 -0.071668573 1.187
-0.094519429 -0.071668573 1.187
-0.09244208 -0.071668573 1.187
-0.090364724 -0.071668573 1.187
-0.088287376 -0.071668573 1.187
-0.086137407 -0.071608201 1.1860001
-0.083990924 -0.071547821 1.1850001
-0.08191707 -0.071547821 1.1850001
-0.07977584 -0.071487442 1.184
-0.077703744 -0.071487442 1.184
-0.075695522 -0.071547821 1.1850001
-0.073621668 -0.071547821 1.1850001
-0.071608201 -0.071608201 1.1860001
-0.06964986 -0.07172896 1.1880001
-0.067684516 -0.071849711 1.1900001
-0.065657042 -0.071910091 1.1910001
-0.063626066 -0.071970463 1.192
-0.061694849 -0.072151601 1.1950001
-0.059753127 -0.072332732 1.1980001
-0.057849035 -0.072574243 1.202
-0.055838194 -0.072695009 1.2040001
-0.053731091 -0.072695009 1.2040001
-0.051623989 -0.072695009 1.2040001
-0.049640264 -0.072876133 1.207
-0.047882307 -0.073419541 1.2160001
-0.045829456 -0.073540293 1.2180001
-0.043948993 -0.073962934 1.225
-0.042078152 -0.074445963 1.233
-0.040049806 -0.074687473 1.2370001
-0.038007457 -0.074928984 1.2410001
-0.035893355 -0.075049736 1.243
-0.033772253 -0.075170495 1.245
-0.031720277 -0.075472385 1.25
-0.14145407 -0.072346739 1.2340001
-0.13906871 -0.072229482 1.2320001
-0.13669033 -0.072112225 1.23
-0.1342096 -0.071936347 1.2270001
-0.13152409 -0.071643196 1.222
-0.12896197 -0.071408689 1.2180001
-0.12641385 -0.071174182 1.2140001
-0.12418686 -0.071115553 1.2130001
-0.12196337 -0.071056925 1.212
-0.11944676 -0.07082241 1.2080001
-0.11674987 -0.070470646 1.202
-0.11378785 -0.069942996 1.1930001
-0.11132548 -0.069708481 1.189
-0.10906088 -0.069591224 1.187
-0.10698353 -0.069591224 1.187
-0.10499456 -0.06964986 1.1880001
-0.10282882 -0.069591224 1.187
-0.10075147 -0.069591224 1.187
-0.098591007 -0.069532603 1.1860001
-0.096596777 -0.069591224 1.187
-0.094599061 -0.06964986 1.1880001
-0.092519961 -0.06964986 1.1880001
-0.090440862 -0.06964986 1.1880001
-0.088287376 -0.069591224 1.187
-0.086282656 -0.06964986 1.1880001
-0.084061801 -0.069532603 1.1860001
-0.081986204 -0.069532603 1.1860001
-0.079708464 -0.069356717 1.1830001
-0.077506863 -0.06923946 1.1810001
-0.075440012 -0.06923946 1.1810001
-0.073559545 -0.069415346 1.184
-0.071668573 -0.069591224 1.187
-0.069708481 -0.069708481 1.189
-0.067684516 -0.06976711 1.1900001
-0.065657042 -0.069825739 1.1910001
-0.063626066 -0.06988436 1.192
-0.061746474 -0.070118874 1.1960001
-0.059852883 -0.070353389 1.2
-0.057993416 -0.070646524 1.205
-0.055930946 -0.07070516 1.2060001
-0.053820346 -0.07070516 1.2060001
-0.051709745 -0.07070516 1.2060001
-0.049804773 -0.070998296 1.2110001
-0.048118569 -0.071643196 1.222
-0.0461681 -0.071936347 1.2270001
-0.04420013 -0.072229482 1.2320001
-0.042317037 -0.072698504 1.24
-0.040244061 -0.07287439 1.243
-0.038160589 -0.073050268 1.2460001
-0.036037736 -0.073167525 1.248
-0.03393501 -0.073343404 1.251
-0.03184716 -0.073577918 1.2550001
-0.14133944 -0.070130251 1.233
-0.13906871 -0.070073381 1.2320001
-0.13646808 -0.069845863 1.228
-0.13399082 -0.069675229 1.225
-0.13120119 -0.069333971 1.2190001
-0.12864432 -0.069106452 1.215
-0.12610145 -0.068878941 1.2110001
-0.12377734 -0.068765193 1.2090001
-0.12125897 -0.068537675 1.205
-0.11835907 -0.068082653 1.197
-0.11548719 -0.067627631 1.189
-0.11292943 -0.067343242 1.184
-0.11067008 -0.067229487 1.182
-0.10850961 -0.067172617 1.1810001
-0.10653288 -0.067229487 1.182
-0.10464104 -0.067343242 1.184
-0.10256894 -0.067343242 1.184
-0.10049684 -0.067343242 1.184
-0.098341614 -0.067286365 1.1830001
-0.096352637 -0.067343242 1.184
-0.094280541 -0.067343242 1.184
-0.092130564 -0.067286365 1.1830001
-0.090060212 -0.067286365 1.1830001
-0.088064238 -0.067343242 1.184
-0.086137407 -0.067456998 1.1860001
-0.083920039 -0.067343242 1.184
-0.081778817 -0.067286365 1.1830001
-0.07950633 -0.067115732 1.1800001
-0.077309974 -0.067001984 1.1780001
-0.075312249 -0.067058854 1.179
-0.073435292 -0.067229487 1.182
-0.071547821 -0.06740012 1.1850001
-0.069591224 -0.067513876 1.187
-0.067513876 -0.067513876 1.187
-0.065491654 -0.067570761 1.1880001
-0.063465931 -0.067627631 1.189
-0.061694849 -0.067968898 1.1950001
-0.059753127 -0.068139531 1.1980001
-0.057945296 -0.068480805 1.2040001
-0.055884566 -0.068537675 1.205
-0.053731091 -0.068480805 1.2040001
-0.051666863 -0.068537675 1.205
-0.0498459 -0.068935819 1.212
-0.048276074 -0.069732107 1.2260001
-0.046356235 -0.070073381 1.2320001
-0.044343635 -0.070300885 1.2360001
-0.042385291 -0.070642151 1.2420001
-0.040276442 -0.070755914 1.2440001
-0.038099334 -0.070755914 1.2440001
-0.035951104 -0.070812784 1.245
-0.033826504 -0.070926547 1.2470001
-0.031796407 -0.071267806 1.253
-0.14156869 -0.068082653 1.235
-0.13918158 -0.067972399 1.233
-0.1365792 -0.067751884 1.2290001
-0.13388145 -0.06747625 1.2240001
-0.13109356 -0.067145482 1.2180001
-0.12864432 -0.066980101 1.215
-0.12599732 -0.066704459 1.21
-0.12367497 -0.066594206 1.2080001
-0.12075581 -0.066153191 1.2
-0.1177658 -0.065657042 1.1910001
-0.11471016 -0.065105766 1.1810001
-0.11235716 -0.064940378 1.1780001
-0.11020193 -0.064885251 1.177
-0.10823397 -0.064940378 1.1780001
-0.10635263 -0.065050632 1.1800001
-0.10464104 -0.065271147 1.184
-0.1027422 -0.065381408 1.1860001
-0.10058172 -0.065326273 1.1850001
-0.09842474 -0.065271147 1.184
-0.096271262 -0.06521602 1.1830001
-0.094200917 -0.06521602 1.1830001
-0.092052683 -0.065160885 1.182
-0.089907959 -0.065105766 1.1810001
-0.087989867 -0.06521602 1.1830001
-0.085992143 -0.065271147 1.184
-0.083849162 -0.06521602 1.1830001
-0.081640564 -0.065105766 1.1810001
-0.079438955 -0.064995505 1.179
-0.077375598 -0.064995505 1.179
-0.075376131 -0.065050632 1.1800001
-0.073497415 -0.06521602 1.1830001
-0.071668573 -0.065436527 1.187
-0.069708481 -0.065546781 1.189
-0.067627631 -0.065546781 1.189
-0.065657042 -0.065657042 1.1910001
-0.063626066 -0.065712161 1.192
-0.061798099 -0.065987803 1.197
-0.059852883 -0.066153191 1.2
-0.057993416 -0.066428825 1.205
-0.055930946 -0.066483952 1.2060001
-0.053820346 -0.066483952 1.2060001
-0.051838376 -0.06664934 1.2090001
-0.050092664 -0.067145482 1.2180001
-0.048472963 -0.067862146 1.2310001
-0.04650674 -0.06813778 1.2360001
-0.044523019 -0.068413422 1.2410001
-0.042590052 -0.068799309 1.248
-0.040405948 -0.068799309 1.248
-0.038160589 -0.068689056 1.2460001
-0.035951104 -0.068633929 1.245
-0.03379938 -0.068689056 1.2460001
-0.031796407 -0.069074951 1.253
-0.13918158 -0.065814547 1.233
-0.13613467 -0.065387517 1.225
-0.13344392 -0.06512063 1.22
-0.13066304 -0.064800374 1.2140001
-0.12832668 -0.064693615 1.212
-0.12568492 -0.064426728 1.207
-0.12336782 -0.064319976 1.205
-0.12025266 -0.063786201 1.1950001
-0.11707364 -0.063199043 1.184
-0.11432163 -0.062825404 1.177
-0.11207103 -0.062718645 1.1750001
-0.10992105 -0.062665261 1.174
-0.10795832 -0.062718645 1.1750001
-0.1059921 -0.062772021 1.176
-0.10419914 -0.062932156 1.179
-0.10230906 -0.063038915 1.1810001
-0.10032708 -0.063092291 1.182
-0.098341614 -0.063145667 1.1830001
-0.096108504 -0.063038915 1.1810001
-0.093962029 -0.062985532 1.1800001
-0.091741174 -0.062878788 1.1780001
-0.089679569 -0.062878788 1.1780001
-0.087766729 -0.062985532 1.1800001
-0.085846886 -0.063092291 1.182
-0.083707415 -0.063038915 1.1810001
-0.08143317 -0.062878788 1.1780001
-0.079371579 -0.062878788 1.1780001
-0.077375598 -0.062932156 1.179
-0.075440012 -0.063038915 1.1810001
-0.073497415 -0.063145667 1.1830001
-0.071668573 -0.063359179 1.187
-0.06964986 -0.063412555 1.1880001
-0.067570761 -0.063412555 1.1880001
-0.065601908 -0.063519314 1.1900001
-0.063626066 -0.063626066 1.192
-0.061746474 -0.063839577 1.1960001
-0.059852883 -0.064053088 1.2
-0.057993416 -0.064319976 1.205
-0.055884566 -0.064319976 1.205
-0.053775713 -0.064319976 1.205
-0.051795494 -0.064480104 1.2080001
-0.050174914 -0.06512063 1.22
-0.048433583 -0.065654412 1.23
-0.046469111 -0.065921299 1.235
-0.044523019 -0.06624157 1.2410001
-0.042521797 -0.066508457 1.2460001
-0.040373571 -0.066561833 1.2470001
-0.038129959 -0.066455074 1.245
-0.035922229 -0.066401698 1.2440001
-0.033745125 -0.066401698 1.2440001
-0.031720277 -0.066721961 1.25
-0.13873006 -0.06345018 1.2290001
-0.13591242 -0.063140415 1.223
-0.13333456 -0.062933907 1.2190001
-0.13066304 -0.062675774 1.2140001
-0.1282208 -0.062520891 1.2110001
-0.12568492 -0.062314373 1.207
-0.12316306 -0.062107868 1.2030001
-0.12045392 -0.061798099 1.197
-0.11737027 -0.06128183 1.187
-0.11461303 -0.060920436 1.1800001
-0.11226178 -0.06076555 1.177
-0.11020193 -0.06076555 1.177
-0.10814209 -0.06076555 1.177
-0.10617237 -0.060817182 1.1780001
-0.10419914 -0.060868807 1.179
-0.10222243 -0.060920436 1.1800001
-0.10032708 -0.061023686 1.182
-0.098341614 -0.061075319 1.1830001
-0.096189879 -0.061023686 1.182
-0.09404166 -0.060972068 1.1810001
-0.091896929 -0.060920436 1.1800001
-0.089755692 -0.060868807 1.179
-0.087841108 -0.060972068 1.1810001
-0.085774265 -0.060972068 1.1810001
-0.083565645 -0.060868807 1.179
-0.081364043 -0.06076555 1.177
-0.079304196 -0.06076555 1.177
-0.077375598 -0.060868807 1.179
-0.075567767 -0.061075319 1.1830001
-0.073621668 -0.061178569 1.1850001
-0.07172896 -0.061333455 1.1880001
-0.069708481 -0.06138508 1.189
-0.067684516 -0.061436713 1.1900001
-0.065712161 -0.061539963 1.192
-0.063786201 -0.061694849 1.1950001
-0.061798099 -0.061798099 1.197
-0.059902765 -0.062004618 1.2010001
-0.058041546 -0.062262751 1.2060001
-0.055930946 -0.062262751 1.2060001
-0.053864967 -0.062314373 1.207
-0.051924128 -0.062520891 1.2110001
-0.050339427 -0.063192047 1.2240001
-0.04851234 -0.063605063 1.2320001
-0.046544369 -0.063863203 1.2370001
-0.044558898 -0.064121343 1.2420001
-0.042590052 -0.064431101 1.248
-0.040470697 -0.064534359 1.25
-0.038252469 -0.064482726 1.2490001
-0.036037736 -0.064431101 1.248
-0.033826504 -0.064379476 1.2470001
-0.031745657 -0.064585991 1.251
-0.13861717 -0.06124945 1.228
-0.13591242 -0.061000068 1.223
-0.13322516 -0.060750674 1.2180001
-0.13055541 -0.060501292 1.2130001
-0.12790316 -0.060251903 1.2080001
-0.12547667 -0.060102273 1.205
-0.12275354 -0.059803005 1.199
-0.12025266 -0.059603497 1.1950001
-0.11756803 -0.05930423 1.189
-0.11509867 -0.059104726 1.1850001
-0.11264332 -0.058905218 1.1810001
-0.11057646 -0.058905218 1.1810001
-0.10850961 -0.058905218 1.1810001
-0.10644276 -0.058905218 1.1810001
-0.10419914 -0.058805458 1.179
-0.10213579 -0.058805458 1.179
-0.10015733 -0.058855332 1.1800001
-0.09825848 -0.058955088 1.182
-0.096271262 -0.05900497 1.1830001
-0.09404166 -0.058905218 1.1810001
-0.091896929 -0.058855332 1.1800001
-0.089831829 -0.058855332 1.1800001
-0.087841108 -0.058905218 1.1810001
-0.085774265 -0.058905218 1.1810001
-0.08363653 -0.058855332 1.1800001
-0.081364043 -0.058705702 1.177
-0.079371579 -0.05875558 1.1780001
-0.077375598 -0.058805458 1.179
-0.075567767 -0.05900497 1.1830001
-0.073621668 -0.059104726 1.1850001
-0.07172896 -0.059254356 1.1880001
-0.069708481 -0.05930423 1.189
-0.067627631 -0.05930423 1.189
-0.065657042 -0.059403993 1.1910001
-0.063732818 -0.059553616 1.194
-0.061798099 -0.059703253 1.197
-0.059902765 -0.059902765 1.2010001
-0.058089674 -0.060202025 1.207
-0.055930946 -0.060152147 1.2060001
-0.053864967 -0.060202025 1.207
-0.051924128 -0.06040154 1.2110001
-0.050421678 -0.061149698 1.2260001
-0.048591092 -0.061548717 1.2340001
-0.046619624 -0.061798099 1.2390001
-0.044594772 -0.061997607 1.243
-0.042555925 -0.062197119 1.2470001
-0.040470697 -0.062346749 1.25
-0.038283091 -0.062346749 1.25
-0.036095489 -0.062346749 1.25
-0.033880755 -0.062296875 1.2490001
-0.031796407 -0.062496379 1.253
-0.13850431 -0.059052225 1.2270001
-0.13591242 -0.058859706 1.223
-0.13311578 -0.05857094 1.217
-0.13055541 -0.058378439 1.2130001
-0.12779728 -0.058089674 1.207
-0.1255808 -0.058041546 1.2060001
-0.12275354 -0.057704654 1.199
-0.1203533 -0.057560276 1.1960001
-0.11786467 -0.057367764 1.192
-0.11548719 -0.057223383 1.189
-0.11302482 -0.057030872 1.1850001
-0.11067008 -0.05688649 1.182
-0.10860147 -0.05688649 1.182
-0.10644276 -0.056838367 1.1810001
-0.10419914 -0.056742106 1.179
-0.10213579 -0.056742106 1.179
-0.10007244 -0.056742106 1.179
-0.098092228 -0.056790233 1.1800001
-0.096108504 -0.056838367 1.1810001
-0.093962029 -0.056790233 1.1800001
-0.091896929 -0.056790233 1.1800001
-0.089755692 -0.056742106 1.179
-0.087766729 -0.056790233 1.1800001
-0.085629001 -0.056742106 1.179
-0.083565645 -0.056742106 1.179
-0.081502296 -0.056742106 1.179
-0.07950633 -0.056790233 1.1800001
-0.07744123 -0.056790233 1.1800001
-0.075503886 -0.05688649 1.182
-0.073559545 -0.056982744 1.184
-0.071668573 -0.057127129 1.187
-0.069591224 -0.057127129 1.187
-0.067570761 -0.057175256 1.1880001
-0.065546781 -0.057223383 1.189
-0.063626066 -0.057367764 1.192
-0.061746474 -0.057560276 1.1960001
-0.059852883 -0.057752781 1.2
-0.057993416 -0.057993416 1.205
-0.055838194 -0.057945296 1.2040001
-0.053864967 -0.058089674 1.207
-0.051881246 -0.058234055 1.21
-0.050421678 -0.059004091 1.2260001
-0.048630465 -0.059437238 1.235
-0.046657246 -0.059677869 1.24
-0.044594772 -0.059822258 1.243
-0.042590052 -0.060062889 1.248
-0.040503077 -0.060207274 1.251
-0.03834435 -0.060255408 1.2520001
-0.036153242 -0.060255408 1.2520001
-0.033962138 -0.060255408 1.2520001
-0.13873006 -0.056997627 1.2290001
-0.13591242 -0.056719355 1.223
-0.13322516 -0.056487471 1.2180001
-0.13044778 -0.056209207 1.212
-0.12779728 -0.055977318 1.207
-0.12537254 -0.055838194 1.2040001
-0.1229583 -0.055699058 1.2010001
-0.1203533 -0.055467173 1.1960001
-0.11796356 -0.055328041 1.1930001
-0.11529293 -0.055049777 1.187
-0.11292943 -0.054910641 1.184
-0.11048283 -0.054725137 1.1800001
-0.10841773 -0.054725137 1.1800001
-0.10626249 -0.054678757 1.179
-0.10419914 -0.054678757 1.179
-0.10213579 -0.054678757 1.179
-0.099987566 -0.054632384 1.1780001
-0.098009095 -0.054678757 1.179
-0.095945746 -0.054678757 1.179
-0.093962029 -0.054725137 1.1800001
-0.091896929 -0.054725137 1.1800001
-0.089831829 -0.054725137 1.1800001
-0.087841108 -0.054771516 1.1810001
-0.085774265 -0.054771516 1.1810001
-0.083778284 -0.054817893 1.182
-0.081640564 -0.054771516 1.1810001
-0.079573713 -0.054771516 1.1810001
-0.077506863 -0.054771516 1.1810001
-0.075567767 -0.054864269 1.1830001
-0.073559545 -0.054910641 1.184
-0.071668573 -0.055049777 1.187
-0.069591224 -0.055049777 1.187
-0.067513876 -0.055049777 1.187
-0.065546781 -0.055142529 1.189
-0.063679442 -0.055328041 1.1930001
-0.061798099 -0.05551355 1.197
-0.059852883 -0.055652682 1.2
-0.058041546 -0.055930946 1.2060001
-0.055884566 -0.055884566 1.205
-0.053864967 -0.055977318 1.207
-0.051924128 -0.056162834 1.2110001
-0.05038055 -0.056812111 1.225
-0.048630465 -0.057275884 1.235
-0.046657246 -0.057507768 1.24
-0.044594772 -0.057646897 1.243
-0.042521797 -0.057786033 1.2460001
-0.04043832 -0.057925168 1.2490001
-0.03831372 -0.058017917 1.251
-0.036124364 -0.058017917 1.251
-0.034016386 -0.058157053 1.2540001
-0.13861717 -0.054802138 1.228
-0.13580129 -0.054534372 1.222
-0.13311578 -0.054311238 1.217
-0.13044778 -0.054088105 1.212
-0.1276914 -0.053820346 1.2060001
-0.12537254 -0.053731091 1.2040001
-0.12316306 -0.053686462 1.2030001
-0.12065518 -0.05350795 1.199
-0.11796356 -0.053240187 1.1930001
-0.11509867 -0.052883171 1.1850001
-0.11264332 -0.052704666 1.1810001
-0.11020193 -0.052526154 1.177
-0.1080502 -0.052481528 1.176
-0.10590198 -0.052436899 1.1750001
-0.103934 -0.052481528 1.176
-0.10196254 -0.052526154 1.177
-0.099732928 -0.052436899 1.1750001
-0.097676583 -0.052436899 1.1750001
-0.095620237 -0.052436899 1.1750001
-0.093723141 -0.052526154 1.177
-0.091741174 -0.052570783 1.1780001
-0.089679569 -0.052570783 1.1780001
-0.08769235 -0.052615408 1.179
-0.08570163 -0.052660037 1.1800001
-0.083707415 -0.052704666 1.1810001
-0.081640564 -0.052704666 1.1810001
-0.079573713 -0.052704666 1.1810001
-0.07744123 -0.052660037 1.1800001
-0.075503886 -0.052749291 1.182
-0.073497415 -0.05279392 1.1830001
-0.071547821 -0.052883171 1.1850001
-0.069415346 -0.052838545 1.184
-0.06740012 -0.052883171 1.1850001
-0.065546781 -0.053061679 1.189
-0.063679442 -0.053240187 1.1930001
-0.061746474 -0.053374074 1.1960001
-0.059753127 -0.053463325 1.1980001
-0.057849035 -0.053641833 1.202
-0.055791814 -0.053686462 1.2030001
-0.053820346 -0.053820346 1.2060001
-0.051881246 -0.05399885 1.21
-0.05038055 -0.054668259 1.225
-0.048551712 -0.055025276 1.233
-0.046581991 -0.05524841 1.238
-0.044487141 -0.055337664 1.24
-0.042385291 -0.055426922 1.2420001
-0.040308814 -0.055560797 1.245
-0.038191218 -0.055650055 1.2470001
-0.036037736 -0.055694684 1.248
-0.034043517 -0.056007076 1.2550001
-0.13591242 -0.05243865 1.223
-0.13333456 -0.052267145 1.2190001
-0.13066304 -0.052052759 1.2140001
-0.12800905 -0.051838376 1.2090001
-0.12537254 -0.051623989 1.2040001
-0.12306067 -0.051538233 1.202
-0.12055456 -0.051366724 1.1980001
-0.1177658 -0.051066589 1.1910001
-0.11500153 -0.050766442 1.184
-0.11254793 -0.050594937 1.1800001
-0.1101083 -0.050423428 1.176
-0.1080502 -0.050423428 1.176
-0.1059921 -0.050423428 1.176
-0.10402238 -0.050466307 1.177
-0.10196254 -0.050466307 1.177
-0.099732928 -0.050380554 1.1750001
-0.097676583 -0.050380554 1.1750001
-0.095620237 -0.050380554 1.1750001
-0.093723141 -0.050466307 1.177
-0.091741174 -0.050509185 1.1780001
-0.089755692 -0.050552059 1.179
-0.087841108 -0.050637819 1.1810001
-0.085774265 -0.050637819 1.1810001
-0.083707415 -0.050637819 1.1810001
-0.081640564 -0.050637819 1.1810001
-0.079573713 -0.050637819 1.1810001
-0.077572487 -0.050680693 1.182
-0.075631641 -0.050766442 1.184
-0.073683806 -0.050852202 1.1860001
-0.07172896 -0.050937958 1.1880001
-0.06964986 -0.050937958 1.1880001
-0.067627631 -0.050980829 1.189
-0.065712161 -0.051109459 1.192
-0.063839577 -0.051280972 1.1960001
-0.061901353 -0.051409598 1.199
-0.059902765 -0.051495355 1.2010001
-0.058041546 -0.051709745 1.2060001
-0.055884566 -0.051666863 1.205
-0.053954225 -0.051838376 1.2090001
-0.052009881 -0.052009881 1.2130001
-0.050462808 -0.052610163 1.2270001
-0.048591092 -0.052910298 1.2340001
-0.046581991 -0.053081807 1.238
-0.044487141 -0.053167559 1.24
-0.042351164 -0.053210437 1.2410001
-0.040276442 -0.053339072 1.2440001
-0.03822184 -0.053510576 1.248
-0.036153242 -0.053682085 1.2520001
-0.13591242 -0.0502983 1.223
-0.13322516 -0.050092664 1.2180001
-0.13044778 -0.0498459 1.212
-0.12779728 -0.049640264 1.207
-0.12526841 -0.049475759 1.2030001
-0.12275354 -0.04931125 1.199
-0.12005141 -0.049064487 1.1930001
-0.1172714 -0.048776601 1.1860001
-0.11461303 -0.048529837 1.1800001
-0.1121664 -0.048365328 1.176
-0.10973379 -0.048200823 1.1720001
-0.1075908 -0.048159692 1.171
-0.10554145 -0.048159692 1.171
-0.10358049 -0.048200823 1.1720001
-0.10161602 -0.048241951 1.1730001
-0.099563174 -0.048241951 1.1730001
-0.097427189 -0.048200823 1.1720001
-0.095457479 -0.048241951 1.1730001
-0.093404628 -0.048241951 1.1730001
-0.091351777 -0.048241951 1.1730001
-0.089375049 -0.048283074 1.174
-0.087543592 -0.048406456 1.177
-0.085556373 -0.048447587 1.1780001
-0.083494775 -0.048447587 1.1780001
-0.08143317 -0.048447587 1.1780001
-0.07950633 -0.048529837 1.1800001
-0.077506863 -0.048570964 1.1810001
-0.075567767 -0.048653223 1.1830001
-0.073497415 -0.048653223 1.1830001
-0.071547821 -0.048735473 1.1850001
-0.069591224 -0.048817724 1.187
-0.067570761 -0.048858855 1.1880001
-0.065601908 -0.048941109 1.1900001
-0.063679442 -0.049064487 1.1930001
-0.061694849 -0.049146742 1.1950001
-0.059803005 -0.04931125 1.199
-0.057897162 -0.049475759 1.2030001
-0.055745434 -0.049434628 1.202
-0.053820346 -0.049599141 1.2060001
-0.051881246 -0.049763646 1.21
-0.05038055 -0.05038055 1.225
-0.048433583 -0.050586186 1.23
-0.046356235 -0.050668444 1.2320001
-0.044236004 -0.050709564 1.233
-0.042146403 -0.050791822 1.235
-0.040179312 -0.051038586 1.2410001
-0.038191218 -0.051285349 1.2470001
-0.13624582 -0.048276074 1.2260001
-0.13333456 -0.048000436 1.2190001
-0.13055541 -0.047764175 1.2130001
-0.12790316 -0.047567293 1.2080001
-0.1255808 -0.04748854 1.2060001
-0.12275354 -0.047212899 1.199
-0.11995077 -0.046937261 1.192
-0.11707364 -0.046622243 1.184
-0.11451589 -0.046425361 1.179
-0.11207103 -0.046267856 1.1750001
-0.10982742 -0.0461891 1.1730001
-0.10768269 -0.046149723 1.1720001
-0.10572172 -0.0461891 1.1730001
-0.10375725 -0.046228476 1.174
-0.10170265 -0.046228476 1.174
-0.099648051 -0.046228476 1.174
-0.09751033 -0.0461891 1.1730001
-0.095538847 -0.046228476 1.174
-0.093484245 -0.046228476 1.174
-0.091429651 -0.046228476 1.174
-0.089298934 -0.0461891 1.1730001
-0.087394841 -0.046267856 1.1750001
-0.085483737 -0.046346609 1.177
-0.083565645 -0.046425361 1.179
-0.081502296 -0.046425361 1.179
-0.079573713 -0.046504118 1.1810001
-0.077638119 -0.04658287 1.1830001
-0.075631641 -0.046622243 1.184
-0.073621668 -0.046661623 1.1850001
-0.071668573 -0.046740375 1.187
-0.06976711 -0.046858508 1.1900001
-0.067798264 -0.046937261 1.192
-0.065767296 -0.046976641 1.1930001
-0.063732818 -0.047016013 1.194
-0.061849732 -0.047173522 1.1980001
-0.059852883 -0.047252279 1.2
-0.057945296 -0.047409784 1.2040001
-0.055745434 -0.047331028 1.202
-0.053820346 -0.04748854 1.2060001
-0.051924128 -0.047685422 1.2110001
-0.05038055 -0.048236698 1.225
-0.048472963 -0.048472963 1.2310001
-0.04639386 -0.048551712 1.233
-0.04420013 -0.04851234 1.2320001
-0.042078152 -0.048551712 1.233
-0.040146932 -0.04882735 1.24
-0.03831372 -0.049260497 1.251
-0.13355331 -0.045942336 1.2210001
-0.13055541 -0.045641325 1.2130001
-0.12790316 -0.045453191 1.2080001
-0.12547667 -0.045340311 1.205
-0.12265117 -0.045076922 1.1980001
-0.11964888 -0.044738278 1.189
-0.11687588 -0.044474892 1.182
-0.11432163 -0.044286758 1.177
-0.11188027 -0.044136252 1.1730001
-0.10964015 -0.044060998 1.171
-0.10749893 -0.044023372 1.1700001
-0.10554145 -0.044060998 1.171
-0.10366887 -0.044136252 1.1730001
-0.10161602 -0.044136252 1.1730001
-0.099563174 -0.044136252 1.1730001
-0.09751033 -0.044136252 1.1730001
-0.095457479 -0.044136252 1.1730001
-0.093324997 -0.044098627 1.1720001
-0.091196015 -0.044060998 1.171
-0.089146666 -0.044060998 1.171
-0.087171696 -0.044098627 1.1720001
-0.085338488 -0.044211503 1.1750001
-0.083423898 -0.044286758 1.177
-0.081364043 -0.044286758 1.177
-0.079371579 -0.044324387 1.1780001
-0.07744123 -0.044399638 1.1800001
-0.075503886 -0.044474892 1.182
-0.073497415 -0.044512521 1.1830001
-0.071547821 -0.044587772 1.1850001
-0.06964986 -0.044700652 1.1880001
-0.067684516 -0.044775907 1.1900001
-0.065657042 -0.044813536 1.1910001
-0.063679442 -0.044888787 1.1930001
-0.061746474 -0.045001671 1.1960001
-0.059753127 -0.045076922 1.1980001
-0.057800915 -0.045189805 1.2010001
-0.055606302 -0.045114547 1.199
-0.053731091 -0.045302682 1.2040001
-0.051795494 -0.045453191 1.2080001
-0.0502983 -0.046017591 1.223
-0.048472963 -0.046318606 1.2310001
-0.046431489 -0.046431489 1.2340001
-0.04420013 -0.046356235 1.2320001
-0.042044029 -0.046356235 1.2320001
-0.040082179 -0.046581991 1.238
-0.13388145 -0.043913119 1.2240001
-0.13077067 -0.043590225 1.215
-0.12800905 -0.043374967 1.2090001
-0.12547667 -0.043231457 1.205
-0.12285592 -0.043052074 1.2
-0.12005141 -0.042800937 1.1930001
-0.1172714 -0.0425498 1.1860001
-0.11490441 -0.042442169 1.1830001
-0.11235716 -0.042262789 1.1780001
-0.11020193 -0.042226911 1.177
-0.1080502 -0.042191029 1.176
-0.10617237 -0.042262789 1.1780001
-0.10402238 -0.042226911 1.177
-0.10204917 -0.042262789 1.1780001
-0.099987566 -0.042262789 1.1780001
-0.097925976 -0.042262789 1.1780001
-0.09586437 -0.042262789 1.1780001
-0.093643509 -0.042191029 1.176
-0.091507532 -0.042155158 1.1750001
-0.089451186 -0.042155158 1.1750001
-0.087469205 -0.042191029 1.176
-0.085483737 -0.042226911 1.177
-0.083494775 -0.042262789 1.1780001
-0.081502296 -0.04229866 1.179
-0.07950633 -0.042334538 1.1800001
-0.077506863 -0.04237042 1.1810001
-0.075631641 -0.042478044 1.184
-0.073683806 -0.0425498 1.1860001
-0.071789332 -0.042657427 1.189
-0.069825739 -0.042729184 1.1910001
-0.067798264 -0.042765059 1.192
-0.065822415 -0.042836811 1.194
-0.063786201 -0.04287269 1.1950001
-0.061901353 -0.043016195 1.199
-0.059902765 -0.043087952 1.2010001
-0.057945296 -0.043195583 1.2040001
-0.055745434 -0.043123826 1.202
-0.053820346 -0.043267336 1.2060001
-0.051967002 -0.043482594 1.212
-0.050421678 -0.043984868 1.2260001
-0.048669845 -0.044343635 1.2360001
-0.04684538 -0.044666525 1.245
-0.044702403 -0.044702403 1.2460001
-0.042453546 -0.04463065 1.2440001
-0.13055541 -0.04139562 1.2130001
-0.12779728 -0.041190859 1.207
-0.12516429 -0.041020226 1.202
-0.12285592 -0.040951975 1.2
-0.1203533 -0.040815469 1.1960001
-0.11756803 -0.040576581 1.189
-0.11490441 -0.04037182 1.1830001
-0.11235716 -0.040201191 1.1780001
-0.1101083 -0.040132929 1.176
-0.10795832 -0.040098809 1.1750001
-0.10581185 -0.040064678 1.174
-0.10375725 -0.040064678 1.174
-0.10187591 -0.040132929 1.176
-0.099902689 -0.04016706 1.177
-0.097925976 -0.040201191 1.1780001
-0.095782988 -0.04016706 1.177
-0.093563877 -0.040098809 1.1750001
-0.091429651 -0.040064678 1.174
-0.089527309 -0.040132929 1.176
-0.087543592 -0.04016706 1.177
-0.085483737 -0.04016706 1.177
-0.083423898 -0.04016706 1.177
-0.081364043 -0.04016706 1.177
-0.079371579 -0.040201191 1.1780001
-0.07744123 -0.040269442 1.1800001
-0.075503886 -0.040337693 1.182
-0.073559545 -0.040405948 1.184
-0.071608201 -0.040474202 1.1860001
-0.069708481 -0.040576581 1.189
-0.067684516 -0.040610708 1.1900001
-0.065712161 -0.040678959 1.192
-0.063626066 -0.040678959 1.192
-0.061746474 -0.040815469 1.1960001
-0.059852883 -0.040951975 1.2
-0.057849035 -0.041020226 1.202
-0.055699058 -0.040986102 1.2010001
-0.053775713 -0.041122608 1.205
-0.051924128 -0.041327368 1.2110001
-0.048630465 -0.042146403 1.235
-0.13355331 -0.039531779 1.2210001
-0.13044778 -0.03924039 1.212
-0.12758552 -0.039013755 1.205
-0.12526841 -0.038949002 1.2030001
-0.12306067 -0.038916621 1.202
-0.12075581 -0.038851872 1.2
-0.1177658 -0.038560484 1.1910001
-0.11490441 -0.038301472 1.1830001
-0.11245254 -0.038171962 1.179
-0.11029557 -0.038139589 1.1780001
-0.1080502 -0.038074832 1.176
-0.1059921 -0.038074832 1.176
-0.10384563 -0.03804246 1.1750001
-0.10196254 -0.038107213 1.177
-0.099987566 -0.038139589 1.1780001
-0.098009095 -0.038171962 1.179
-0.09586437 -0.038139589 1.1780001
-0.093802772 -0.038139589 1.1780001
-0.091663294 -0.038107213 1.177
-0.089603439 -0.038107213 1.177
-0.087543592 -0.038107213 1.177
-0.085483737 -0.038107213 1.177
-0.083565645 -0.038171962 1.179
-0.08143317 -0.038139589 1.1780001
-0.07950633 -0.038204342 1.1800001
-0.077506863 -0.038236719 1.1810001
-0.075631641 -0.038333844 1.184
-0.073745921 -0.038430978 1.187
-0.071789332 -0.038495727 1.189
-0.069825739 -0.038560484 1.1910001
-0.067741394 -0.038560484 1.1910001
-0.065767296 -0.038625237 1.1930001
-0.063732818 -0.038657613 1.194
-0.061849732 -0.038787119 1.1980001
-0.059902765 -0.038884249 1.2010001
-0.057897162 -0.038949002 1.2030001
-0.055884566 -0.039013755 1.205
-0.053909596 -0.039110884 1.2080001
-0.052138511 -0.0393699 1.2160001
-0.050503932 -0.039758414 1.228
-0.048748598 -0.040082179 1.238
-0.13044778 -0.037119288 1.212
-0.12758552 -0.036904905 1.205
-0.12506016 -0.036782399 1.2010001
-0.12254877 -0.036659889 1.197
-0.12005141 -0.036537383 1.1930001
-0.11717252 -0.036292374 1.1850001
-0.11451589 -0.036108613 1.179
-0.1121664 -0.036016732 1.176
-0.11001468 -0.035986111 1.1750001
-0.10777457 -0.035924856 1.1730001
-0.10563159 -0.035894226 1.1720001
-0.10358049 -0.035894226 1.1720001
-0.10152939 -0.035894226 1.1720001
-0.099393405 -0.035863601 1.171
-0.097427189 -0.035894226 1.1720001
-0.095376089 -0.035894226 1.1720001
-0.093484245 -0.035955481 1.174
-0.091351777 -0.035924856 1.1730001
-0.089298934 -0.035924856 1.1730001
-0.087320454 -0.035955481 1.174
-0.085338488 -0.035986111 1.1750001
-0.083353005 -0.036016732 1.176
