# .PCD v0.7 - Point Cloud Data file format
VERSION 0.7
FIELDS x y z
SIZE 4 4 4
TYPE F F F
COUNT 1 1 1
WIDTH 1429
HEIGHT 1
VIEWPOINT 0 0 0 1 0 0 0
POINTS 1429
DATA ascii
-0.092449076 -0.12699048 1.161
-0.09010572 -0.12655298 1.1570001
-0.087319583 -0.12545918 1.1470001
-0.084865957 -0.12480288 1.141
-0.082869112 -0.12480288 1.141
-0.081014022 -0.12502164 1.143
-0.079082809 -0.12513103 1.1440001
-0.077350229 -0.12556854 1.148
-0.075603642 -0.12600608 1.1520001
-0.073970817 -0.12666236 1.1580001
-0.071819961 -0.12644358 1.156
-0.06949497 -0.12589668 1.151
-0.067246117 -0.12545918 1.1470001
-0.065523155 -0.12600608 1.1520001
-0.063507058 -0.12600608 1.1520001
-0.061277449 -0.12556854 1.148
-0.058752075 -0.12447474 1.138
-0.056710608 -0.12436537 1.1370001
-0.054817017 -0.12458412 1.1390001
-0.053241063 -0.12556854 1.148
-0.051365849 -0.12589668 1.151
-0.049780272 -0.12699048 1.161
-0.04795406 -0.12753738 1.166
-0.10722329 -0.12560442 1.1670001
-0.10563159 -0.12614258 1.1720001
-0.10331535 -0.12581968 1.169
-0.10074973 -0.12517391 1.1630001
-0.098205104 -0.12452812 1.1570001
-0.096263394 -0.12463576 1.1580001
-0.094480924 -0.12495865 1.161
-0.092369452 -0.12485102 1.1600001
-0.089716323 -0.12398998 1.1520001
-0.08686281 -0.12280603 1.141
-0.084865957 -0.12280603 1.141
-0.082941741 -0.12291367 1.1420001
-0.081297539 -0.12345182 1.1470001
-0.079359323 -0.12355945 1.148
-0.077552356 -0.12388234 1.151
-0.075603642 -0.12398998 1.1520001
-0.074034691 -0.12474339 1.159
-0.071882084 -0.12452812 1.1570001
-0.069736488 -0.12431287 1.1550001
-0.067597881 -0.1240976 1.153
-0.065693788 -0.12431287 1.1550001
-0.063672446 -0.12431287 1.1550001
-0.061224073 -0.12345182 1.1470001
-0.059010219 -0.1230213 1.143
-0.056959994 -0.12291367 1.1420001
-0.055105783 -0.12323656 1.1450001
-0.053380195 -0.12388234 1.151
-0.051455103 -0.1240976 1.153
-0.049608767 -0.12452812 1.1570001
-0.047830679 -0.12517391 1.1630001
-0.039859924 -0.12571207 1.1680001
-0.11618373 -0.12440912 1.1750001
-0.11432163 -0.12462088 1.177
-0.1053612 -0.12377384 1.169
-0.10278508 -0.12313855 1.1630001
-0.10031659 -0.12260916 1.1580001
-0.098205104 -0.12250328 1.1570001
-0.096263394 -0.12260916 1.1580001
-0.0945623 -0.12303267 1.1620001
-0.092050932 -0.12239739 1.156
-0.089716323 -0.12197388 1.1520001
-0.087471835 -0.12165624 1.149
-0.085237853 -0.12133859 1.146
-0.082578607 -0.12038568 1.1370001
-0.080943152 -0.12091508 1.1420001
-0.07922107 -0.12133859 1.146
-0.077687114 -0.12207975 1.153
-0.075734898 -0.12218563 1.154
-0.073970817 -0.12260916 1.1580001
-0.071819961 -0.12239739 1.156
-0.069615722 -0.12207975 1.153
-0.067421995 -0.12176212 1.1500001
-0.065466277 -0.12186798 1.151
-0.063507058 -0.12197388 1.1520001
-0.06149096 -0.12197388 1.1520001
-0.059061844 -0.12112684 1.1440001
-0.056810364 -0.12059743 1.1390001
-0.054865144 -0.12070332 1.1400001
-0.053148311 -0.12133859 1.146
-0.051276594 -0.12165624 1.149
-0.049351502 -0.12186798 1.151
-0.047625046 -0.12260916 1.1580001
-0.045755953 -0.12303267 1.1620001
-0.044023372 -0.12387972 1.1700001
-0.042011648 -0.12398559 1.171
-0.03965516 -0.12303267 1.1620001
-0.037459679 -0.12250328 1.1570001
-0.11638148 -0.12256102 1.177
-0.11305895 -0.12120734 1.164
-0.11159413 -0.12183212 1.1700001
-0.1053612 -0.12172799 1.169
-0.10260832 -0.12089494 1.161
-0.10048985 -0.12079082 1.1600001
-0.098629497 -0.12099908 1.1620001
-0.096263394 -0.12058257 1.1580001
-0.093748517 -0.11995778 1.1520001
-0.091652788 -0.11985365 1.151
-0.089949958 -0.12027017 1.1550001
-0.088080868 -0.12047844 1.1570001
-0.085684128 -0.11995778 1.1520001
-0.083014376 -0.1190206 1.143
-0.081084907 -0.11912473 1.1440001
-0.079359323 -0.11954125 1.148
-0.077552356 -0.11985365 1.151
-0.075538017 -0.11985365 1.151
-0.073715299 -0.12016603 1.154
-0.071757831 -0.12027017 1.1550001
-0.069736488 -0.12027017 1.1550001
-0.067539252 -0.11995778 1.1520001
-0.065523155 -0.11995778 1.1520001
-0.063396804 -0.11974952 1.1500001
-0.06149096 -0.11995778 1.1520001
-0.059268355 -0.11954125 1.148
-0.057159498 -0.119333 1.146
-0.055105783 -0.11922887 1.1450001
-0.053148311 -0.119333 1.146
-0.051053457 -0.11912473 1.1440001
-0.049179994 -0.11943714 1.1470001
-0.047501665 -0.12027017 1.1550001
-0.045559071 -0.12047844 1.1570001
-0.043684728 -0.12089494 1.161
-0.041724637 -0.12110322 1.1630001
-0.039825793 -0.12151972 1.1670001
-0.037718695 -0.12131147 1.1650001
-0.035863601 -0.12193624 1.171
-0.033554364 -0.12099908 1.1620001
-0.11683125 -0.1188631 1.161
-0.11667813 -0.12080833 1.1800001
-0.11461303 -0.12080833 1.1800001
-0.11178489 -0.11998928 1.1720001
-0.10964015 -0.1198869 1.171
-0.10703953 -0.11927262 1.1650001
-0.10427964 -0.11845358 1.1570001
-0.10216642 -0.11835119 1.156
-0.10048985 -0.11876073 1.1600001
-0.09803535 -0.11824883 1.1550001
-0.095348969 -0.11742978 1.1470001
-0.092771977 -0.11671312 1.1400001
-0.0914139 -0.11753215 1.148
-0.089949958 -0.11824883 1.1550001
-0.088385381 -0.1188631 1.161
-0.086056024 -0.11845358 1.1570001
-0.083668031 -0.11794169 1.1520001
-0.081368417 -0.11753215 1.148
-0.079566702 -0.1178393 1.151
-0.077417605 -0.11763453 1.149
-0.075341128 -0.11753215 1.148
-0.073332027 -0.11753215 1.148
-0.071509317 -0.1178393 1.151
-0.069615722 -0.11804406 1.153
-0.067539252 -0.11794169 1.1520001
-0.065409407 -0.11773694 1.1500001
-0.063231416 -0.11742978 1.1470001
-0.061170693 -0.1173274 1.146
-0.058803707 -0.11661074 1.1390001
-0.056710608 -0.11640599 1.1370001
-0.054624509 -0.11620123 1.1350001
-0.05282367 -0.11661074 1.1390001
-0.050874956 -0.11671312 1.1400001
-0.048965611 -0.11691789 1.1420001
-0.047378283 -0.11794169 1.1520001
-0.045519691 -0.11835119 1.156
-0.043534223 -0.11845358 1.1570001
-0.041509375 -0.11845358 1.1570001
-0.039723411 -0.11917024 1.164
-0.037783444 -0.11947738 1.1670001
-0.035894226 -0.11998928 1.1720001
-0.033409987 -0.11845358 1.1570001
-0.031249505 -0.11794169 1.1520001
-0.11235716 -0.11854197 1.1780001
-0.109172 -0.1173344 1.166
-0.10648826 -0.11662999 1.159
-0.10418952 -0.1163281 1.156
-0.10216642 -0.1163281 1.156
-0.10014332 -0.1163281 1.156
-0.097271435 -0.11532181 1.146
-0.095099583 -0.11512055 1.1440001
-0.092934728 -0.11491928 1.1420001
-0.09117502 -0.11522119 1.1450001
-0.089560568 -0.11572433 1.1500001
-0.088233121 -0.11662999 1.159
-0.086502299 -0.11703251 1.1630001
-0.084249057 -0.11673062 1.1600001
-0.081864573 -0.11622748 1.1550001
-0.079566702 -0.11582495 1.151
-0.077417605 -0.1156237 1.149
-0.075341128 -0.11552306 1.148
-0.073332027 -0.11552306 1.148
-0.071385063 -0.1156237 1.149
-0.06955535 -0.11592559 1.1520001
-0.067597881 -0.11602621 1.153
-0.065580033 -0.11602621 1.153
-0.063396804 -0.11572433 1.1500001
-0.061224073 -0.11542244 1.1470001
-0.058958594 -0.11491928 1.1420001
-0.056959994 -0.11491928 1.1420001
-0.054961398 -0.11491928 1.1420001
-0.052916426 -0.11481865 1.141
-0.050830327 -0.11461739 1.1390001
-0.04883698 -0.11461739 1.1390001
-0.046967015 -0.11491928 1.1420001
-0.045480315 -0.11622748 1.1550001
-0.043609474 -0.11662999 1.159
-0.041545253 -0.11652937 1.1580001
-0.039689288 -0.11703251 1.1630001
-0.037718695 -0.11723378 1.1650001
-0.035894226 -0.11793818 1.1720001
-0.033467736 -0.11662999 1.159
-0.031358011 -0.1163281 1.156
-0.029258784 -0.11602621 1.153
-0.12091071 -0.11677701 1.1810001
-0.11461303 -0.11667813 1.1800001
-0.11130799 -0.11539268 1.1670001
-0.10879749 -0.11489828 1.1620001
-0.1063045 -0.11440389 1.1570001
-0.10409939 -0.11420614 1.1550001
-0.10110587 -0.11311845 1.1440001
-0.099190407 -0.11321733 1.1450001
-0.096677288 -0.11262405 1.1390001
-0.095182717 -0.11321733 1.1450001
-0.093097486 -0.11311845 1.1440001
-0.091095388 -0.11311845 1.1440001
-0.08909329 -0.11311845 1.1440001
-0.087471835 -0.11361285 1.149
-0.0857585 -0.11400836 1.153
-0.083813287 -0.11410725 1.154
-0.081581056 -0.11381061 1.151
-0.07922107 -0.1133162 1.146
-0.077282853 -0.11341509 1.1470001
-0.075144246 -0.11321733 1.1450001
-0.073204279 -0.1133162 1.146
-0.071136557 -0.11321733 1.1450001
-0.069313832 -0.11351396 1.148
-0.067421995 -0.11371173 1.1500001
-0.065409407 -0.11371173 1.1500001
-0.063231416 -0.11341509 1.1470001
-0.061010562 -0.11301956 1.143
-0.058958594 -0.11292069 1.1420001
-0.056810364 -0.11262405 1.1390001
-0.054817017 -0.11262405 1.1390001
-0.05277729 -0.11252516 1.138
-0.050741069 -0.11242629 1.1370001
-0.048879854 -0.11272293 1.1400001
-0.047049265 -0.11311845 1.1440001
-0.045440938 -0.11410725 1.154
-0.043571852 -0.11450278 1.1580001
-0.041509375 -0.11440389 1.1570001
-0.0394504 -0.114305 1.156
-0.037492059 -0.11450278 1.1580001
-0.035618592 -0.11499716 1.1630001
-0.033640996 -0.11519492 1.1650001
-0.031683527 -0.11549157 1.1680001
-0.029842436 -0.1162826 1.176
-0.11968214 -0.11354459 1.169
-0.11824008 -0.11412737 1.1750001
-0.1162826 -0.11422449 1.176
-0.11373885 -0.11373885 1.171
-0.11130799 -0.11335033 1.1670001
-0.10926563 -0.11335033 1.1670001
-0.10694765 -0.11305895 1.164
-0.10473029 -0.11286469 1.1620001
-0.10119426 -0.11121348 1.1450001
-0.099103771 -0.11111636 1.1440001
-0.097016796 -0.11101922 1.143
-0.095348969 -0.11140774 1.1470001
-0.093422994 -0.11150487 1.148
-0.091573164 -0.11169913 1.1500001
-0.089404799 -0.11150487 1.148
-0.087395705 -0.11150487 1.148
-0.085460991 -0.111602 1.149
-0.083450146 -0.111602 1.149
-0.081297539 -0.11140774 1.1470001
-0.079151943 -0.11121348 1.1450001
-0.07721547 -0.11131061 1.146
-0.075275503 -0.11140774 1.1470001
-0.073332027 -0.11150487 1.148
-0.07126081 -0.11140774 1.1470001
-0.069313832 -0.11150487 1.148
-0.067304738 -0.11150487 1.148
-0.065295644 -0.11150487 1.148
-0.063231416 -0.11140774 1.1470001
-0.061117325 -0.11121348 1.1450001
-0.059061844 -0.11111636 1.1440001
-0.057009868 -0.11101922 1.143
-0.055057652 -0.11111636 1.1440001
-0.052962802 -0.1109221 1.1420001
-0.050874956 -0.11072784 1.1400001
-0.049051363 -0.11111636 1.1440001
-0.047213774 -0.11150487 1.148
-0.045677204 -0.11267043 1.1600001
-0.043609474 -0.1125733 1.159
-0.041509375 -0.11237904 1.1570001
-0.0394504 -0.11228191 1.156
-0.037492059 -0.11247617 1.1580001
-0.035557337 -0.11276755 1.161
-0.033698749 -0.11335033 1.1670001
-0.031710654 -0.11354459 1.169
-0.02969018 -0.11364173 1.1700001
-0.027642582 -0.11364173 1.1700001
-0.11978453 -0.11159413 1.1700001
-0.11813945 -0.11197564 1.174
-0.11618373 -0.11207103 1.1750001
-0.11315607 -0.11111723 1.1650001
-0.11092647 -0.11092647 1.1630001
-0.10907838 -0.11111723 1.1650001
-0.10703953 -0.11111723 1.1650001
-0.10409939 -0.11016344 1.1550001
-0.10092912 -0.1089235 1.1420001
-0.099277027 -0.10930501 1.146
-0.097186558 -0.10920963 1.1450001
-0.095515229 -0.10959116 1.149
-0.093504377 -0.10959116 1.149
-0.091652788 -0.10978191 1.151
-0.089404799 -0.10949577 1.148
-0.087319583 -0.1094004 1.1470001
-0.085163482 -0.10920963 1.1450001
-0.08315964 -0.10920963 1.1450001
-0.081084907 -0.10911426 1.1440001
-0.078944556 -0.1089235 1.1420001
-0.076945961 -0.1089235 1.1420001
-0.075012982 -0.10901887 1.143
-0.073076516 -0.10911426 1.1440001
-0.071074426 -0.10911426 1.1440001
-0.069072329 -0.10911426 1.1440001
-0.067128859 -0.10920963 1.1450001
-0.065068133 -0.10911426 1.1440001
-0.063010909 -0.10901887 1.143
-0.060957186 -0.1089235 1.1420001
-0.059010219 -0.10901887 1.143
-0.056959994 -0.1089235 1.1420001
-0.054913267 -0.10882811 1.141
-0.052962802 -0.1089235 1.1420001
-0.051008828 -0.10901887 1.143
-0.049094241 -0.10920963 1.1450001
-0.047172651 -0.1094004 1.1470001
-0.045283433 -0.10968654 1.1500001
-0.04338371 -0.10997267 1.153
-0.041437622 -0.11016344 1.1550001
-0.039382145 -0.11006805 1.154
-0.037459679 -0.11035419 1.1570001
-0.035496086 -0.11054495 1.159
-0.033612121 -0.11102185 1.164
-0.031683527 -0.11140337 1.1680001
-0.029715555 -0.1116895 1.171
-0.027571702 -0.11130799 1.1670001
-0.025660612 -0.11188027 1.1730001
-0.12245689 -0.1101083 1.176
-0.12080833 -0.11048283 1.1800001
-0.11914574 -0.11085734 1.184
-0.11638148 -0.11020193 1.177
-0.11344747 -0.10935927 1.1680001
-0.1112126 -0.109172 1.166
-0.10926563 -0.10926563 1.1670001
-0.1067639 -0.10879749 1.1620001
-0.10409939 -0.10814209 1.1550001
-0.10154776 -0.10758031 1.149
-0.099710181 -0.10776757 1.151
-0.097441189 -0.10748667 1.148
-0.095681481 -0.10776757 1.151
-0.093585767 -0.10767394 1.1500001
-0.09173242 -0.1078612 1.1520001
-0.089716323 -0.1078612 1.1520001
-0.087547973 -0.10767394 1.1500001
-0.085386612 -0.10748667 1.148
-0.083232261 -0.10729942 1.146
-0.081014022 -0.10701853 1.143
-0.078944556 -0.1069249 1.1420001
-0.076878577 -0.10683127 1.141
-0.075012982 -0.10701853 1.143
-0.073076516 -0.10711216 1.1440001
-0.071136557 -0.10720579 1.1450001
-0.069132708 -0.10720579 1.1450001
-0.067128859 -0.10720579 1.1450001
-0.065125011 -0.10720579 1.1450001
-0.063066043 -0.10711216 1.1440001
-0.061117325 -0.10720579 1.1450001
-0.059061844 -0.10711216 1.1440001
-0.057059746 -0.10711216 1.1440001
-0.055057652 -0.10711216 1.1440001
-0.053148311 -0.10729942 1.146
-0.051142715 -0.10729942 1.146
-0.049179994 -0.10739306 1.1470001
-0.047213774 -0.10748667 1.148
-0.045362186 -0.1078612 1.1520001
-0.043458972 -0.10814209 1.1550001
-0.041509375 -0.10832934 1.1570001
-0.0394504 -0.10823571 1.156
-0.037524432 -0.1085166 1.159
-0.035526711 -0.10861024 1.1600001
-0.033554364 -0.10879749 1.1620001
-0.031629272 -0.109172 1.166
-0.029791685 -0.10992105 1.174
-0.027666207 -0.10964015 1.171
-0.025616858 -0.10964015 1.171
-0.12172974 -0.10924463 1.189
-0.11944763 -0.10906088 1.187
-0.11608484 -0.10786644 1.174
-0.11335033 -0.10722329 1.1670001
-0.11102185 -0.10694765 1.164
-0.10832934 -0.1063045 1.1570001
-0.10575322 -0.10575322 1.151
-0.10337836 -0.1053857 1.1470001
-0.10154776 -0.10556946 1.149
-0.099623546 -0.10566134 1.1500001
-0.097526073 -0.10556946 1.149
-0.095764615 -0.1058451 1.1520001
-0.093422994 -0.10547758 1.148
-0.091493532 -0.10556946 1.149
-0.089326933 -0.1053857 1.1470001
-0.087395705 -0.10547758 1.148
-0.085237853 -0.10529382 1.146
-0.083014376 -0.10501818 1.143
-0.080801398 -0.10474255 1.1400001
-0.07873717 -0.10465067 1.1390001
-0.076743819 -0.10465067 1.1390001
-0.074816108 -0.10474255 1.1400001
-0.072821014 -0.10474255 1.1400001
-0.070888035 -0.10483442 1.141
-0.068951569 -0.10492631 1.1420001
-0.066952981 -0.10492631 1.1420001
-0.064954378 -0.10492631 1.1420001
-0.062955789 -0.10492631 1.1420001
-0.061010562 -0.10501818 1.143
-0.058958594 -0.10492631 1.1420001
-0.057009868 -0.10501818 1.143
-0.055009525 -0.10501818 1.143
-0.053101934 -0.10520195 1.1450001
-0.05109809 -0.10520195 1.1450001
-0.049137119 -0.10529382 1.146
-0.047172651 -0.1053857 1.1470001
-0.045204677 -0.10547758 1.148
-0.043270838 -0.10566134 1.1500001
-0.041365866 -0.10593697 1.153
-0.039416272 -0.10612074 1.1550001
-0.037524432 -0.10648826 1.159
-0.035526711 -0.10658014 1.1600001
-0.033554364 -0.1067639 1.1620001
-0.03157502 -0.10694765 1.164
-0.029715555 -0.1075908 1.171
-0.027737085 -0.10786644 1.174
-0.025704363 -0.10795832 1.1750001
-0.12732652 -0.10662301 1.1830001
-0.11944763 -0.10698353 1.187
-0.1162826 -0.1059921 1.176
-0.11403023 -0.10581185 1.174
-0.1112126 -0.1050908 1.166
-0.10814209 -0.10409939 1.1550001
-0.10547758 -0.10346849 1.148
-0.10337836 -0.10337836 1.1470001
-0.10128263 -0.10328823 1.146
-0.099363662 -0.10337836 1.1470001
-0.097695827 -0.10373887 1.151
-0.095764615 -0.103829 1.1520001
-0.093585767 -0.10364875 1.1500001
-0.0914139 -0.10346849 1.148
-0.089326933 -0.10337836 1.1470001
-0.087243453 -0.10328823 1.146
-0.085163482 -0.1031981 1.1450001
-0.082941741 -0.10292771 1.1420001
-0.080801398 -0.10274746 1.1400001
-0.07873717 -0.10265733 1.1390001
-0.076811202 -0.10274746 1.1400001
-0.074881732 -0.10283758 1.141
-0.072948761 -0.10292771 1.1420001
-0.070950173 -0.10292771 1.1420001
-0.068951569 -0.10292771 1.1420001
-0.066952981 -0.10292771 1.1420001
-0.065011255 -0.10301784 1.143
-0.062955789 -0.10292771 1.1420001
-0.061063942 -0.10310797 1.1440001
-0.058958594 -0.10292771 1.1420001
-0.057059746 -0.10310797 1.1440001
-0.055057652 -0.10310797 1.1440001
-0.053148311 -0.10328823 1.146
-0.051187344 -0.10337836 1.1470001
-0.049222868 -0.10346849 1.148
-0.047296029 -0.10364875 1.1500001
-0.045283433 -0.10364875 1.1500001
-0.043308459 -0.10373887 1.151
-0.041401744 -0.10400926 1.154
-0.039484527 -0.10427964 1.1570001
-0.037589185 -0.10464016 1.161
-0.035587963 -0.10473029 1.1620001
-0.033640996 -0.10500069 1.1650001
-0.03157502 -0.10491055 1.164
-0.02969018 -0.10545133 1.1700001
-0.027666207 -0.10554145 1.171
-0.025726238 -0.1059921 1.176
-0.12700363 -0.10428753 1.1800001
-0.12462088 -0.10402238 1.177
-0.12297755 -0.10437591 1.1810001
-0.12111546 -0.10455266 1.1830001
-0.11874323 -0.10428753 1.1800001
-0.1162826 -0.103934 1.176
-0.11403023 -0.10375725 1.174
-0.11140337 -0.10322697 1.1680001
-0.10795482 -0.10190128 1.153
-0.10566134 -0.10163615 1.1500001
-0.10292771 -0.10092912 1.1420001
-0.10110587 -0.10110587 1.1440001
-0.099363662 -0.10137101 1.1470001
-0.097610958 -0.10163615 1.1500001
-0.095515229 -0.10154776 1.149
-0.093341619 -0.10137101 1.1470001
-0.091254644 -0.10128263 1.146
-0.08909329 -0.10110587 1.1440001
-0.087015063 -0.10101749 1.143
-0.084940344 -0.10092912 1.1420001
-0.082723856 -0.10066397 1.1390001
-0.080659635 -0.1005756 1.138
-0.078598909 -0.10048722 1.1370001
-0.076743819 -0.10066397 1.1390001
-0.074750476 -0.10066397 1.1390001
-0.072821014 -0.10075235 1.1400001
-0.070763782 -0.10066397 1.1390001
-0.068770438 -0.10066397 1.1390001
-0.066777095 -0.10066397 1.1390001
-0.064840622 -0.10075235 1.1400001
-0.062790401 -0.10066397 1.1390001
-0.060850438 -0.10075235 1.1400001
-0.058906961 -0.10084073 1.141
-0.056959994 -0.10092912 1.1420001
-0.054961398 -0.10092912 1.1420001
-0.053055558 -0.10110587 1.1440001
-0.051142715 -0.10128263 1.146
-0.049222868 -0.10145938 1.148
-0.047213774 -0.10145938 1.148
-0.0451653 -0.10137101 1.1470001
-0.043233208 -0.10154776 1.149
-0.041329991 -0.10181291 1.1520001
-0.0394504 -0.10216642 1.156
-0.037524432 -0.10243156 1.159
-0.035618592 -0.10278508 1.1630001
-0.033583246 -0.10278508 1.1630001
-0.03157502 -0.10287345 1.164
-0.029537922 -0.10287345 1.164
-0.027642582 -0.10340373 1.1700001
-0.025594983 -0.10340373 1.1700001
-0.02366814 -0.103934 1.176
-0.12754177 -0.10265557 1.1850001
-0.12419736 -0.10161602 1.1730001
-0.12204038 -0.10152939 1.1720001
-0.12060355 -0.10204917 1.1780001
-0.11854197 -0.10204917 1.1780001
-0.11667813 -0.10222243 1.1800001
-0.11432163 -0.10196254 1.177
-0.11207103 -0.10178928 1.1750001
-0.1085166 -0.10040321 1.159
-0.1058451 -0.099796809 1.1520001
-0.10328823 -0.099277027 1.146
-0.10163615 -0.099623546 1.1500001
-0.099796809 -0.099796809 1.1520001
-0.097780712 -0.099796809 1.1520001
-0.095598355 -0.099623546 1.1500001
-0.093504377 -0.099536918 1.149
-0.0914139 -0.099450283 1.148
-0.089249045 -0.099277027 1.146
-0.0870912 -0.099103771 1.1440001
-0.084940344 -0.098930515 1.1420001
-0.082796492 -0.09875726 1.1400001
-0.080730513 -0.098670632 1.1390001
-0.078668036 -0.098583996 1.138
-0.076743819 -0.098670632 1.1390001
-0.074750476 -0.098670632 1.1390001
-0.07288488 -0.09884388 1.141
-0.07082592 -0.09875726 1.1400001
-0.068891197 -0.09884388 1.141
-0.066835724 -0.09875726 1.1400001
-0.064840622 -0.09875726 1.1400001
-0.062845528 -0.09875726 1.1400001
-0.061010562 -0.099017136 1.143
-0.059010219 -0.099017136 1.143
-0.057009868 -0.099017136 1.143
-0.054961398 -0.098930515 1.1420001
-0.053055558 -0.099103771 1.1440001
-0.051142715 -0.099277027 1.146
-0.049179994 -0.099363662 1.1470001
-0.047213774 -0.099450283 1.148
-0.045244053 -0.099536918 1.149
-0.043346088 -0.099796809 1.1520001
-0.041437622 -0.1000567 1.1550001
-0.039518654 -0.10031659 1.1580001
-0.037524432 -0.10040321 1.159
-0.035618592 -0.10074973 1.1630001
-0.033583246 -0.10074973 1.1630001
-0.031629272 -0.10100961 1.166
-0.029537922 -0.10083635 1.164
-0.02759533 -0.10118288 1.1680001
-0.025441851 -0.10074973 1.1630001
-0.023446755 -0.10092299 1.1650001
-0.021499787 -0.10135613 1.1700001
-0.12504441 -0.10024221 1.1810001
-0.12183212 -0.099308535 1.1700001
-0.12019403 -0.099648051 1.174
-0.11773692 -0.099308535 1.1700001
-0.1157882 -0.099393405 1.171
-0.1132532 -0.098969012 1.166
-0.11111723 -0.098884135 1.1650001
-0.10842298 -0.098289989 1.1580001
-0.10602885 -0.097950466 1.154
-0.103829 -0.097780712 1.1520001
-0.10216642 -0.098120227 1.156
-0.1000567 -0.09803535 1.1550001
-0.097610958 -0.097610958 1.1500001
-0.095348969 -0.097356319 1.1470001
-0.093178868 -0.097186558 1.1450001
-0.09117502 -0.097186558 1.1450001
-0.08909329 -0.097101673 1.1440001
-0.08686281 -0.096847035 1.141
-0.084717207 -0.096677288 1.1390001
-0.082578607 -0.096507527 1.1370001
-0.080517881 -0.096422642 1.136
-0.078460656 -0.096337765 1.1350001
-0.076474316 -0.096337765 1.1350001
-0.074487969 -0.096337765 1.1350001
-0.072565496 -0.096422642 1.136
-0.070639528 -0.096507527 1.1370001
-0.068770438 -0.096677288 1.1390001
-0.066718459 -0.096592396 1.138
-0.064669997 -0.096507527 1.1370001
-0.062680148 -0.096507527 1.1370001
-0.060797054 -0.096677288 1.1390001
-0.05885534 -0.096762165 1.1400001
-0.056910116 -0.096847035 1.141
-0.054865144 -0.096762165 1.1400001
-0.052916426 -0.096847035 1.141
-0.051008828 -0.097016796 1.143
-0.049051363 -0.097101673 1.1440001
-0.047131516 -0.097271435 1.146
-0.0451653 -0.097356319 1.1470001
-0.043308459 -0.097695827 1.151
-0.041365866 -0.097865589 1.153
-0.039382145 -0.097950466 1.154
-0.037427302 -0.098120227 1.156
-0.035557337 -0.09854462 1.161
-0.033554364 -0.098629497 1.1620001
-0.031547893 -0.098714389 1.1630001
-0.029461792 -0.09854462 1.161
-0.027477199 -0.098714389 1.1630001
-0.025376223 -0.09845975 1.1600001
-0.023386378 -0.098629497 1.1620001
-0.021573288 -0.099648051 1.174
-0.12983437 -0.098674133 1.187
-0.12807992 -0.098923512 1.1900001
-0.12546793 -0.098507866 1.1850001
-0.12297755 -0.098175354 1.1810001
-0.12019403 -0.097593449 1.174
-0.11763629 -0.097177804 1.169
-0.11549157 -0.097094677 1.1680001
-0.11296183 -0.096679032 1.1630001
-0.11064033 -0.096429646 1.1600001
-0.10842298 -0.096263394 1.1580001
-0.10658014 -0.096429646 1.1600001
-0.10473029 -0.096595906 1.1620001
-0.10243156 -0.096346512 1.159
-0.10022996 -0.09618026 1.1570001
-0.097610958 -0.095598355 1.1500001
-0.095515229 -0.095515229 1.149
-0.093260244 -0.095265836 1.146
-0.09117502 -0.095182717 1.1450001
-0.089015409 -0.09501645 1.143
-0.08678668 -0.094767071 1.1400001
-0.084717207 -0.09468393 1.1390001
-0.082578607 -0.094517678 1.1370001
-0.080517881 -0.094434552 1.136
-0.078460656 -0.094351426 1.1350001
-0.076406933 -0.094268292 1.1340001
-0.074487969 -0.094351426 1.1350001
-0.072501622 -0.094351426 1.1350001
-0.070639528 -0.094517678 1.1370001
-0.068770438 -0.09468393 1.1390001
-0.066777095 -0.09468393 1.1390001
-0.064783745 -0.09468393 1.1390001
-0.062735267 -0.094600804 1.138
-0.060797054 -0.09468393 1.1390001
-0.058803707 -0.09468393 1.1390001
-0.056810364 -0.09468393 1.1390001
-0.054865144 -0.094767071 1.1400001
-0.05287005 -0.094767071 1.1400001
-0.050964206 -0.094933324 1.1420001
-0.049051363 -0.095099583 1.1440001
-0.047172651 -0.095348969 1.1470001
-0.045283433 -0.095598355 1.1500001
-0.04338371 -0.095847733 1.153
-0.041401744 -0.095930874 1.154
-0.0394504 -0.096097127 1.156
-0.037492059 -0.096263394 1.1580001
-0.035618592 -0.096679032 1.1630001
-0.03366987 -0.096928418 1.166
-0.031629272 -0.096928418 1.166
-0.0295633 -0.096845292 1.1650001
-0.027477199 -0.096679032 1.1630001
-0.025376223 -0.096429646 1.1600001
-0.023325998 -0.096346512 1.159
-0.021407908 -0.096845292 1.1650001
-0.12797493 -0.095213339 1.1700001
-0.12635784 -0.095538847 1.174
-0.12525615 -0.096271262 1.1830001
-0.12328993 -0.096352637 1.184
-0.11998928 -0.095376089 1.1720001
-0.11743503 -0.094969198 1.1670001
-0.11509604 -0.094725065 1.164
-0.11286469 -0.0945623 1.1620001
-0.11016344 -0.093992658 1.1550001
-0.1085166 -0.094318166 1.159
-0.10658014 -0.094399549 1.1600001
-0.10427964 -0.094155408 1.1570001
-0.10198966 -0.093911275 1.154
-0.099710181 -0.093667135 1.151
-0.097356319 -0.093341619 1.1470001
-0.095182717 -0.093178868 1.1450001
-0.093016103 -0.093016103 1.143
-0.091015756 -0.093016103 1.143
-0.088859655 -0.092853352 1.141
-0.08663442 -0.092609204 1.138
-0.084568448 -0.092527829 1.1370001
-0.08243335 -0.092365079 1.1350001
-0.080376118 -0.092283696 1.1340001
-0.078253277 -0.092120938 1.1320001
-0.076204799 -0.092039563 1.131
-0.074356705 -0.092202313 1.133
-0.072437741 -0.092283696 1.1340001
-0.070515275 -0.092365079 1.1350001
-0.0685893 -0.092446454 1.136
-0.066601202 -0.092446454 1.136
-0.064556241 -0.092365079 1.1350001
-0.062459629 -0.092202313 1.133
-0.060476784 -0.092202313 1.133
-0.058545571 -0.092283696 1.1340001
-0.056660727 -0.092446454 1.136
-0.054720763 -0.092527829 1.1370001
-0.052730918 -0.092527829 1.1370001
-0.050874956 -0.092771977 1.1400001
-0.048965611 -0.092934728 1.1420001
-0.047131516 -0.093260244 1.146
-0.0451653 -0.093341619 1.1470001
-0.043233208 -0.093504377 1.149
-0.041329991 -0.093748517 1.1520001
-0.039382145 -0.093911275 1.154
-0.037459679 -0.094155408 1.1570001
-0.035557337 -0.094480924 1.161
-0.03366987 -0.094887823 1.166
-0.031602148 -0.094806448 1.1650001
-0.029537922 -0.094725065 1.164
-0.027453573 -0.0945623 1.1620001
-0.025398096 -0.094480924 1.161
-0.023285747 -0.094155408 1.1570001
-0.021426281 -0.094887823 1.166
-0.12635784 -0.093484245 1.174
-0.12515028 -0.094121285 1.182
-0.12381058 -0.094678678 1.189
-0.12009166 -0.093404628 1.1730001
-0.11783754 -0.093245357 1.171
-0.11539268 -0.092926852 1.1670001
-0.11344747 -0.093006484 1.1680001
-0.11092647 -0.09260834 1.1630001
-0.10907838 -0.092767596 1.1650001
-0.10685578 -0.09260834 1.1630001
-0.10427964 -0.092130564 1.1570001
-0.10181291 -0.09173242 1.1520001
-0.099623546 -0.091573164 1.1500001
-0.097441189 -0.0914139 1.148
-0.095348969 -0.091334276 1.1470001
-0.093178868 -0.09117502 1.1450001
-0.09117502 -0.09117502 1.1450001
-0.089015409 -0.091015756 1.143
-0.08686281 -0.0908565 1.141
-0.084717207 -0.090697244 1.1390001
-0.082578607 -0.090537988 1.1370001
-0.080447003 -0.090378731 1.1350001
-0.07839153 -0.0902991 1.1340001
-0.076272182 -0.090139844 1.1320001
-0.074422337 -0.0902991 1.1340001
-0.072437741 -0.0902991 1.1340001
-0.070515275 -0.090378731 1.1350001
-0.068528935 -0.090378731 1.1350001
-0.066601202 -0.090458356 1.136
-0.064556241 -0.090378731 1.1350001
-0.06251476 -0.0902991 1.1340001
-0.060530167 -0.0902991 1.1340001
-0.058648825 -0.090458356 1.136
-0.056760479 -0.090617612 1.138
-0.054817017 -0.090697244 1.1390001
-0.05277729 -0.090617612 1.138
-0.050874956 -0.090776883 1.1400001
-0.049008485 -0.091015756 1.143
-0.047172651 -0.091334276 1.1470001
-0.045244053 -0.091493532 1.149
-0.043346088 -0.09173242 1.1520001
-0.041365866 -0.091812037 1.153
-0.039382145 -0.091891676 1.154
-0.037427302 -0.092050932 1.156
-0.035526711 -0.092369452 1.1600001
-0.033698749 -0.092926852 1.1670001
-0.031683527 -0.093006484 1.1680001
-0.029614052 -0.092926852 1.1670001
-0.027524451 -0.092767596 1.1650001
-0.025441851 -0.09260834 1.1630001
-0.023305874 -0.092210196 1.1580001
-0.021407908 -0.092767596 1.1650001
-0.13191172 -0.09244208 1.187
-0.12906872 -0.091896929 1.1800001
-0.12678836 -0.091741174 1.1780001
-0.12525615 -0.092130564 1.1830001
-0.12370646 -0.092519961 1.1880001
-0.12009166 -0.091351777 1.1730001
-0.11783754 -0.091196015 1.171
-0.11539268 -0.090884507 1.1670001
-0.11335033 -0.090884507 1.1670001
-0.11064033 -0.090339355 1.1600001
-0.10879749 -0.09049511 1.1620001
-0.10658014 -0.090339355 1.1600001
-0.10400926 -0.089872077 1.154
-0.10163615 -0.089560568 1.1500001
-0.099363662 -0.089326933 1.1470001
-0.097271435 -0.089249045 1.146
-0.095182717 -0.089171171 1.1450001
-0.093178868 -0.089171171 1.1450001
-0.091095388 -0.08909329 1.1440001
-0.088937536 -0.088937536 1.1420001
-0.08678668 -0.088781781 1.1400001
-0.084642828 -0.088626012 1.138
-0.082578607 -0.088548146 1.1370001
-0.080447003 -0.088392384 1.1350001
-0.078322396 -0.088236623 1.133
-0.076137416 -0.088002987 1.13
-0.074225448 -0.088080868 1.131
-0.072246104 -0.088080868 1.131
-0.070391014 -0.088236623 1.133
-0.068468548 -0.088314503 1.1340001
-0.066483952 -0.088314503 1.1340001
-0.064499363 -0.088314503 1.1340001
-0.062459629 -0.088236623 1.133
-0.060476784 -0.088236623 1.133
-0.0585972 -0.088392384 1.1350001
-0.056760479 -0.088626012 1.138
-0.054817017 -0.088703893 1.1390001
-0.052730918 -0.088548146 1.1370001
-0.050785694 -0.088626012 1.138
-0.048879854 -0.088781781 1.1400001
-0.047049265 -0.08909329 1.1440001
-0.04512592 -0.089249045 1.146
-0.043233208 -0.08948268 1.149
-0.041258242 -0.089560568 1.1500001
-0.039279766 -0.089638442 1.151
-0.037330169 -0.089794196 1.153
-0.03546546 -0.090183601 1.1580001
-0.033612121 -0.090650864 1.164
-0.03157502 -0.090650864 1.164
-0.0295633 -0.090728745 1.1650001
-0.027524451 -0.090728745 1.1650001
-0.025594983 -0.091118142 1.1700001
-0.02346688 -0.090806618 1.166
-0.021444658 -0.090884507 1.1670001
-0.12060355 -0.089679569 1.1780001
-0.11844134 -0.089603439 1.177
-0.11588708 -0.089222796 1.1720001
-0.11354459 -0.088994414 1.169
-0.11092647 -0.088537641 1.1630001
-0.10898475 -0.088613771 1.164
-0.10658014 -0.088309258 1.1600001
-0.10427964 -0.088080868 1.1570001
-0.10181291 -0.087700225 1.1520001
-0.099536918 -0.087471835 1.149
-0.097356319 -0.087319583 1.1470001
-0.095348969 -0.087319583 1.1470001
-0.093341619 -0.087319583 1.1470001
-0.091254644 -0.087243453 1.146
-0.089015409 -0.087015063 1.143
-0.08686281 -0.08686281 1.141
-0.084791586 -0.08678668 1.1400001
-0.082796492 -0.08678668 1.1400001
-0.080659635 -0.08663442 1.138
-0.078529783 -0.08648216 1.136
-0.07633955 -0.086253777 1.133
-0.074225448 -0.086101525 1.131
-0.072182223 -0.086025387 1.13
-0.070266761 -0.086101525 1.131
-0.068408169 -0.086253777 1.133
-0.066483952 -0.086329907 1.1340001
-0.064556241 -0.086406045 1.1350001
-0.062569894 -0.086406045 1.1350001
-0.060636923 -0.08648216 1.136
-0.058700457 -0.086558297 1.1370001
-0.056860238 -0.08678668 1.1400001
-0.054913267 -0.08686281 1.141
-0.052916426 -0.08686281 1.141
-0.050919577 -0.08686281 1.141
-0.048965611 -0.08693894 1.1420001
-0.047090396 -0.087167323 1.1450001
-0.045244053 -0.087471835 1.149
-0.043308459 -0.087624095 1.151
-0.041329991 -0.087700225 1.1520001
-0.039313894 -0.087700225 1.1520001
-0.037362549 -0.087852478 1.154
-0.03546546 -0.088156998 1.1580001
-0.033612121 -0.088613771 1.164
-0.031710654 -0.088994414 1.169
-0.02969018 -0.089070544 1.1700001
-0.027642582 -0.089070544 1.1700001
-0.025660612 -0.089298934 1.1730001
-0.023788895 -0.089984089 1.182
-0.021426281 -0.088766024 1.166
-0.12610321 -0.088584892 1.1910001
-0.12370646 -0.088361755 1.1880001
-0.12060355 -0.087617971 1.1780001
-0.11854197 -0.087617971 1.1780001
-0.11618373 -0.087394841 1.1750001
-0.11383599 -0.087171696 1.1720001
-0.11102185 -0.08657667 1.164
-0.10889112 -0.086502299 1.1630001
-0.1063045 -0.086056024 1.1570001
-0.10409939 -0.085907266 1.1550001
-0.10172452 -0.085609742 1.151
-0.099450283 -0.085386612 1.148
-0.097186558 -0.085163482 1.1450001
-0.095099583 -0.085089102 1.1440001
-0.093097486 -0.085089102 1.1440001
-0.091015756 -0.085014716 1.143
-0.088859655 -0.084865957 1.141
-0.08686281 -0.084865957 1.141
-0.084791586 -0.084791586 1.1400001
-0.082723856 -0.084717207 1.1390001
-0.080659635 -0.084642828 1.138
-0.07839153 -0.084345318 1.1340001
-0.076272182 -0.08419656 1.1320001
-0.074159816 -0.084047794 1.13
-0.072118349 -0.083973423 1.1290001
-0.07020463 -0.084047794 1.13
-0.068347797 -0.08419656 1.1320001
-0.066366702 -0.08419656 1.1320001
-0.064442478 -0.084270932 1.133
-0.062404506 -0.08419656 1.1320001
-0.060530167 -0.084345318 1.1340001
-0.058545571 -0.084345318 1.1340001
-0.056760479 -0.084642828 1.138
-0.054817017 -0.084717207 1.1390001
-0.05287005 -0.084791586 1.1400001
-0.050874956 -0.084791586 1.1400001
-0.048965611 -0.084940344 1.1420001
-0.047049265 -0.085089102 1.1440001
-0.0451653 -0.085312232 1.1470001
-0.043195579 -0.085386612 1.148
-0.041258242 -0.08553537 1.1500001
-0.039313894 -0.085684128 1.1520001
-0.03739493 -0.085907266 1.1550001
-0.035434831 -0.086056024 1.1570001
-0.033525489 -0.086353526 1.161
-0.031683527 -0.086874187 1.1680001
-0.029664803 -0.086948566 1.169
-0.027618956 -0.086948566 1.169
-0.025660612 -0.087246083 1.1730001
-0.023809021 -0.087989867 1.1830001
-0.021683544 -0.087766729 1.1800001
-0.12786466 -0.086282656 1.1880001
-0.12620908 -0.086573169 1.192
-0.12360233 -0.086210027 1.187
-0.12101308 -0.085846886 1.182
-0.11874323 -0.08570163 1.1800001
-0.11667813 -0.08570163 1.1800001
-0.11403023 -0.085265853 1.174
-0.1112126 -0.084684826 1.166
-0.10879749 -0.084394321 1.1620001
-0.10639638 -0.0841038 1.1580001
-0.10427964 -0.084031172 1.1570001
-0.10190128 -0.083740652 1.153
-0.099710181 -0.083595403 1.151
-0.097356319 -0.08330489 1.1470001
-0.095265836 -0.083232261 1.146
-0.093097486 -0.083087005 1.1440001
-0.091015756 -0.083014376 1.143
-0.088937536 -0.082941741 1.1420001
-0.08693894 -0.082941741 1.1420001
-0.084865957 -0.082869112 1.141
-0.082723856 -0.082723856 1.1390001
-0.080659635 -0.082651228 1.138
-0.078460656 -0.08243335 1.1350001
-0.07633955 -0.082288086 1.133
-0.07429108 -0.082215466 1.1320001
-0.072182223 -0.082070202 1.13
-0.070266761 -0.08214283 1.131
-0.068347797 -0.082215466 1.1320001
-0.066366702 -0.082215466 1.1320001
-0.064442478 -0.082288086 1.133
-0.062459629 -0.082288086 1.133
-0.060583547 -0.08243335 1.1350001
-0.0585972 -0.08243335 1.1350001
-0.056760479 -0.082651228 1.138
-0.054865144 -0.082796492 1.1400001
-0.052962802 -0.082941741 1.1420001
-0.051008828 -0.083014376 1.143
-0.049094241 -0.08315964 1.1450001
-0.047131516 -0.083232261 1.146
-0.045244053 -0.083450146 1.149
-0.043270838 -0.083522774 1.1500001
-0.041365866 -0.083740652 1.153
-0.039416272 -0.083885916 1.1550001
-0.037492059 -0.0841038 1.1580001
-0.035526711 -0.084249057 1.1600001
-0.033640996 -0.084612206 1.1650001
-0.031873412 -0.085338488 1.1750001
-0.029817061 -0.085338488 1.1750001
-0.027737085 -0.085265853 1.174
-0.025638735 -0.085120596 1.1720001
-0.021499787 -0.084975347 1.1700001
-0.13027191 -0.084416196 1.1910001
-0.12678836 -0.083494775 1.1780001
-0.12578557 -0.084203556 1.1880001
-0.12287343 -0.08363653 1.1800001
-0.12060355 -0.083494775 1.1780001
-0.1183407 -0.083353005 1.176
-0.11657924 -0.083565645 1.179
-0.11383599 -0.083069503 1.1720001
-0.1112126 -0.082644224 1.166
-0.10870386 -0.082289837 1.161
-0.10639638 -0.082077213 1.1580001
-0.10427964 -0.08200632 1.1570001
-0.10198966 -0.081793696 1.154
-0.099710181 -0.081581056 1.151
-0.097356319 -0.081297539 1.1470001
-0.095265836 -0.081226662 1.146
-0.092934728 -0.080943152 1.1420001
-0.090936132 -0.080943152 1.1420001
-0.088937536 -0.080943152 1.1420001
-0.08693894 -0.080943152 1.1420001
-0.084865957 -0.080872275 1.141
-0.082578607 -0.080588758 1.1370001
-0.080447003 -0.080447003 1.1350001
-0.078322396 -0.080305241 1.133
-0.076204799 -0.080163486 1.131
-0.074094191 -0.080021732 1.1290001
-0.072054468 -0.079950854 1.128
-0.070080377 -0.079950854 1.128
-0.068166658 -0.080021732 1.1290001
-0.066249438 -0.080092601 1.13
-0.064442478 -0.080305241 1.133
-0.062404506 -0.080234371 1.1320001
-0.060530167 -0.080376118 1.1340001
-0.058545571 -0.080376118 1.1340001
-0.056710608 -0.080588758 1.1370001
-0.054817017 -0.080730513 1.1390001
-0.05287005 -0.080801398 1.1400001
-0.050919577 -0.080872275 1.141
-0.049008485 -0.081014022 1.143
-0.047049265 -0.081084907 1.1440001
-0.045086548 -0.081155792 1.1450001
-0.043195579 -0.081368417 1.148
-0.041294113 -0.081581056 1.151
-0.039416272 -0.081864573 1.1550001
-0.037492059 -0.082077213 1.1580001
-0.035496086 -0.082148083 1.159
-0.033612121 -0.082502477 1.164
-0.031737782 -0.082927741 1.1700001
-0.02976631 -0.083140381 1.1730001
-0.027737085 -0.083211258 1.174
-0.025726238 -0.083353005 1.176
-0.12950623 -0.081847943 1.184
-0.12754177 -0.08191707 1.1850001
-0.12589143 -0.082193583 1.189
-0.12276928 -0.081502296 1.179
-0.12080833 -0.08157143 1.1800001
-0.11844134 -0.081364043 1.177
-0.11657924 -0.081502296 1.179
-0.11373885 -0.080949277 1.171
-0.11140337 -0.080741897 1.1680001
-0.10898475 -0.080465376 1.164
-0.1067639 -0.080327116 1.1620001
-0.1044599 -0.080119736 1.159
-0.10207804 -0.079843223 1.1550001
-0.099710181 -0.079566702 1.151
-0.097610958 -0.079497583 1.1500001
-0.095348969 -0.079290196 1.1470001
-0.093016103 -0.079013675 1.143
-0.090936132 -0.078944556 1.1420001
-0.088937536 -0.078944556 1.1420001
-0.08693894 -0.078944556 1.1420001
-0.084791586 -0.078806296 1.1400001
-0.082578607 -0.078598909 1.1370001
-0.080447003 -0.078460656 1.1350001
-0.078322396 -0.078322396 1.133
-0.076204799 -0.078184143 1.131
-0.074028559 -0.077976756 1.128
-0.071990594 -0.077907629 1.1270001
-0.070080377 -0.077976756 1.128
-0.068227038 -0.078115009 1.13
-0.066308066 -0.078184143 1.131
-0.064499363 -0.07839153 1.1340001
-0.062569894 -0.078460656 1.1350001
-0.060636923 -0.078529783 1.136
-0.058648825 -0.078529783 1.136
-0.056760479 -0.078668036 1.138
-0.054817017 -0.07873717 1.1390001
-0.05287005 -0.078806296 1.1400001
-0.050964206 -0.078944556 1.1420001
-0.049094241 -0.079151943 1.1450001
-0.047172651 -0.079290196 1.1470001
-0.045204677 -0.079359323 1.148
-0.043270838 -0.079497583 1.1500001
-0.041329991 -0.079635836 1.1520001
-0.039416272 -0.079843223 1.1550001
-0.037524432 -0.080119736 1.159
-0.035618592 -0.08039625 1.1630001
-0.033727624 -0.080741897 1.1680001
-0.03179203 -0.081018403 1.1720001
-0.029842436 -0.081294909 1.176
-0.027831592 -0.08143317 1.1780001
-0.025791867 -0.081502296 1.179
-0.13016251 -0.080180116 1.1900001
-0.12807992 -0.080180116 1.1900001
-0.12589143 -0.080112733 1.189
-0.12224864 -0.079102062 1.174
-0.12070594 -0.079438955 1.179
-0.11854197 -0.079371579 1.1780001
-0.11648037 -0.079371579 1.1780001
-0.11373885 -0.07889992 1.171
-0.11130799 -0.07863041 1.1670001
-0.10898475 -0.078428276 1.164
-0.106672 -0.078226142 1.161
-0.10418952 -0.077889249 1.156
-0.10181291 -0.077619739 1.1520001
-0.099536918 -0.077417605 1.149
-0.097441189 -0.077350229 1.148
-0.095099583 -0.077080712 1.1440001
-0.092771977 -0.076811202 1.1400001
-0.090776883 -0.076811202 1.1400001
-0.088937536 -0.076945961 1.1420001
-0.08686281 -0.076878577 1.141
-0.084642828 -0.076676443 1.138
-0.082360715 -0.076406933 1.1340001
-0.080305241 -0.07633955 1.133
-0.078253277 -0.076272182 1.1320001
-0.076137416 -0.076137416 1.13
-0.073962942 -0.075935282 1.1270001
-0.071926713 -0.075867906 1.126
-0.069956124 -0.075867906 1.126
-0.068166658 -0.07607004 1.1290001
-0.066249438 -0.076137416 1.13
-0.064442478 -0.07633955 1.133
-0.062459629 -0.07633955 1.133
-0.060530167 -0.076406933 1.1340001
-0.058545571 -0.076406933 1.1340001
-0.056610856 -0.076474316 1.1350001
-0.054624509 -0.076474316 1.1350001
-0.052730918 -0.076609068 1.1370001
-0.050830327 -0.076743819 1.1390001
-0.048965611 -0.076945961 1.1420001
-0.047049265 -0.077080712 1.1440001
-0.04512592 -0.07721547 1.146
-0.043195579 -0.077350229 1.148
-0.04122236 -0.077417605 1.149
-0.039348017 -0.077687114 1.153
-0.037524432 -0.078091383 1.159
-0.035649218 -0.078428276 1.164
-0.033698749 -0.07863041 1.1670001
-0.031710654 -0.078765169 1.169
-0.02976631 -0.079034686 1.1730001
-0.027784338 -0.079236813 1.176
-0.025769992 -0.079371579 1.1780001
-0.01955194 -0.079236813 1.176
-0.12318581 -0.077638119 1.1830001
-0.12091071 -0.077506863 1.1810001
-0.11844134 -0.077244341 1.177
-0.11638148 -0.077244341 1.177
-0.11364173 -0.076784953 1.1700001
-0.11140337 -0.076653697 1.1680001
-0.10898475 -0.076391175 1.164
-0.1067639 -0.076259919 1.1620001
-0.10436978 -0.075997412 1.1580001
-0.10198966 -0.075734898 1.154
-0.099710181 -0.075538017 1.151
-0.097441189 -0.075341128 1.148
-0.095182717 -0.075144246 1.1450001
-0.093016103 -0.075012982 1.143
-0.090936132 -0.074947365 1.1420001
-0.088859655 -0.074881732 1.141
-0.08671055 -0.074750476 1.1390001
-0.084494069 -0.074553594 1.136
-0.08243335 -0.074487969 1.1350001
-0.080376118 -0.074422337 1.1340001
-0.078460656 -0.074487969 1.1350001
-0.07633955 -0.074356705 1.133
-0.074159816 -0.074159816 1.13
-0.072118349 -0.074094191 1.1290001
-0.07020463 -0.074159816 1.13
-0.068347797 -0.07429108 1.1320001
-0.066425323 -0.074356705 1.133
-0.064556241 -0.074487969 1.1350001
-0.062569894 -0.074487969 1.1350001
-0.060583547 -0.074487969 1.1350001
-0.0585972 -0.074487969 1.1350001
-0.056610856 -0.074487969 1.1350001
-0.054672632 -0.074553594 1.136
-0.05277729 -0.074684843 1.138
-0.050830327 -0.074750476 1.1390001
-0.048965611 -0.074947365 1.1420001
-0.047049265 -0.075078614 1.1440001
-0.04512592 -0.075209871 1.146
-0.043195579 -0.075341128 1.148
-0.04122236 -0.07540676 1.149
-0.039313894 -0.075603642 1.1520001
-0.037524432 -0.076063037 1.159
-0.035741094 -0.076588064 1.1670001
-0.033785377 -0.076784953 1.1700001
-0.031846285 -0.07704746 1.174
-0.029791685 -0.07704746 1.174
-0.027760712 -0.077113092 1.1750001
-0.025682487 -0.07704746 1.174
-0.12101308 -0.075503886 1.182
-0.11854197 -0.075248376 1.1780001
-0.1162826 -0.075120613 1.176
-0.11383599 -0.07486511 1.1720001
-0.11130799 -0.074545711 1.1670001
-0.10879749 -0.074226327 1.1620001
-0.10658014 -0.074098572 1.1600001
-0.10418952 -0.073843054 1.156
-0.10198966 -0.073715299 1.154
-0.099796809 -0.073587552 1.1520001
-0.097526073 -0.073395915 1.149
-0.095265836 -0.073204279 1.146
-0.093016103 -0.073012643 1.143
-0.091015756 -0.073012643 1.143
-0.088859655 -0.07288488 1.141
-0.08671055 -0.072757132 1.1390001
-0.08441969 -0.072501622 1.1350001
-0.082360715 -0.072437741 1.1340001
-0.080305241 -0.07237386 1.133
-0.078460656 -0.072501622 1.1350001
-0.076474316 -0.072501622 1.1350001
-0.074356705 -0.07237386 1.133
-0.072309986 -0.072309986 1.1320001
-0.070266761 -0.072246104 1.131
-0.068408169 -0.07237386 1.133
-0.066483952 -0.072437741 1.1340001
-0.064613111 -0.072565496 1.136
-0.062569894 -0.072501622 1.1350001
-0.060530167 -0.072437741 1.1340001
-0.058493938 -0.07237386 1.133
-0.056461219 -0.072309986 1.1320001
-0.054480128 -0.072309986 1.1320001
-0.052591786 -0.072437741 1.1340001
-0.05069644 -0.072565496 1.136
-0.04883698 -0.072757132 1.1390001
-0.04688476 -0.072821014 1.1400001
-0.044968415 -0.072948761 1.1420001
-0.043082703 -0.073140398 1.1450001
-0.041186482 -0.073332027 1.148
-0.039313894 -0.073587552 1.1520001
-0.037492059 -0.073970817 1.1580001
-0.035710469 -0.074481837 1.166
-0.033814255 -0.074801229 1.171
-0.031873412 -0.075056739 1.1750001
-0.029817061 -0.075056739 1.1750001
-0.027737085 -0.074992865 1.174
-0.025638735 -0.07486511 1.1720001
-0.023748644 -0.075376131 1.1800001
-0.1214226 -0.073683806 1.1860001
-0.11864259 -0.0732489 1.179
-0.11638148 -0.073124647 1.177
-0.11412737 -0.073000394 1.1750001
-0.1116895 -0.072751872 1.171
-0.109172 -0.072441243 1.166
-0.10685578 -0.072254859 1.1630001
-0.1044599 -0.072006345 1.159
-0.10234318 -0.071944222 1.1580001
-0.099970065 -0.071695708 1.154
-0.097695827 -0.071509317 1.151
-0.095432088 -0.071322933 1.148
-0.093260244 -0.07119868 1.146
-0.091254644 -0.07119868 1.146
-0.089171171 -0.071136557 1.1450001
-0.087015063 -0.071012296 1.143
-0.084791586 -0.07082592 1.1400001
-0.082723856 -0.070763782 1.1390001
-0.080588758 -0.070639528 1.1370001
-0.078668036 -0.070701659 1.138
-0.076676443 -0.070701659 1.138
-0.074619226 -0.070639528 1.1370001
-0.072693244 -0.070701659 1.138
-0.070577398 -0.070577398 1.136
-0.068649679 -0.070639528 1.1370001
-0.066718459 -0.070701659 1.138
-0.064783745 -0.070763782 1.1390001
-0.062790401 -0.070763782 1.1390001
-0.060636923 -0.070577398 1.136
-0.058648825 -0.070577398 1.136
-0.056660727 -0.070577398 1.136
-0.054768886 -0.070701659 1.138
-0.05282367 -0.070763782 1.1390001
-0.050830327 -0.070763782 1.1390001
-0.048922729 -0.070888035 1.141
-0.046925887 -0.070888035 1.141
-0.045007791 -0.071012296 1.143
-0.043120325 -0.07119868 1.146
-0.041258242 -0.071447194 1.1500001
-0.039348017 -0.07163357 1.153
-0.037524432 -0.072006345 1.159
-0.035679843 -0.072379112 1.1650001
-0.03384313 -0.07281401 1.1720001
-0.031981915 -0.0732489 1.179
-0.029918566 -0.0732489 1.179
-0.027807964 -0.073124647 1.177
-0.025682487 -0.072938263 1.174
-0.12101308 -0.07136669 1.182
-0.11884386 -0.071306311 1.1810001
-0.11638148 -0.0710648 1.177
-0.11412737 -0.070944041 1.1750001
-0.11178489 -0.07076291 1.1720001
-0.10926563 -0.07046102 1.1670001
-0.1067639 -0.07015913 1.1620001
-0.10418952 -0.06979686 1.156
-0.10207804 -0.069736488 1.1550001
-0.099710181 -0.06949497 1.151
-0.097441189 -0.069313832 1.148
-0.095099583 -0.069072329 1.1440001
-0.092934728 -0.068951569 1.1420001
-0.09117502 -0.069132708 1.1450001
-0.08909329 -0.069072329 1.1440001
-0.087167323 -0.069132708 1.1450001
-0.085014716 -0.069011942 1.143
-0.082941741 -0.068951569 1.1420001
-0.080730513 -0.068770438 1.1390001
-0.07873717 -0.068770438 1.1390001
-0.076676443 -0.068710059 1.138
-0.074684843 -0.068710059 1.138
-0.072693244 -0.068710059 1.138
-0.070701659 -0.068710059 1.138
-0.068770438 -0.068770438 1.1390001
-0.066894345 -0.068891197 1.141
-0.0648975 -0.068891197 1.141
-0.062845528 -0.068830818 1.1400001
-0.060690299 -0.068649679 1.1370001
-0.058700457 -0.068649679 1.1370001
-0.056760479 -0.068710059 1.138
-0.054817017 -0.068770438 1.1390001
-0.05287005 -0.068830818 1.1400001
-0.050874956 -0.068830818 1.1400001
-0.048879854 -0.068830818 1.1400001
-0.04688476 -0.068830818 1.1400001
-0.044968415 -0.068951569 1.1420001
-0.043082703 -0.069132708 1.1450001
-0.041258242 -0.069434598 1.1500001
-0.039313894 -0.06955535 1.1520001
-0.037492059 -0.069917619 1.1580001
-0.035618592 -0.070219509 1.1630001
-0.033756498 -0.070581771 1.169
-0.031846285 -0.070883662 1.174
-0.029867815 -0.0710648 1.177
-0.027784338 -0.071004413 1.176
-0.025704363 -0.070944041 1.1750001
-0.023688266 -0.0710648 1.177
-0.12318581 -0.069356717 1.1830001
-0.12070594 -0.069122203 1.179
-0.11854197 -0.069063574 1.1780001
-0.1162826 -0.068946317 1.176
-0.11412737 -0.068887696 1.1750001
-0.1116895 -0.068653181 1.171
-0.10926563 -0.068418667 1.1670001
-0.1067639 -0.068125531 1.1620001
-0.10436978 -0.067891024 1.1580001
-0.10216642 -0.067773767 1.156
-0.099796809 -0.067539252 1.1520001
-0.097356319 -0.067246117 1.1470001
-0.095182717 -0.067128859 1.1450001
-0.093016103 -0.067011602 1.143
-0.09117502 -0.067128859 1.1450001
-0.08909329 -0.067070231 1.1440001
-0.087243453 -0.067187488 1.146
-0.085163482 -0.067128859 1.1450001
-0.08330489 -0.067246117 1.1470001
-0.081155792 -0.067128859 1.1450001
-0.079013675 -0.067011602 1.143
-0.076878577 -0.066894345 1.141
-0.074947365 -0.066952981 1.1420001
-0.072948761 -0.066952981 1.1420001
-0.070888035 -0.066894345 1.141
-0.068951569 -0.066952981 1.1420001
-0.067070231 -0.067070231 1.1440001
-0.065125011 -0.067128859 1.1450001
-0.06312117 -0.067128859 1.1450001
-0.061063942 -0.067070231 1.1440001
-0.059061844 -0.067070231 1.1440001
-0.057159498 -0.067187488 1.146
-0.055105783 -0.067128859 1.1450001
-0.053055558 -0.067070231 1.1440001
-0.050919577 -0.066894345 1.141
-0.048922729 -0.066894345 1.141
-0.046967015 -0.066952981 1.1420001
-0.045007791 -0.067011602 1.143
-0.043120325 -0.067187488 1.146
-0.04122236 -0.067363366 1.149
-0.039313894 -0.067539252 1.1520001
-0.037459679 -0.067832395 1.1570001
-0.035587963 -0.068125531 1.1620001
-0.033756498 -0.068535931 1.169
-0.031846285 -0.068829067 1.174
-0.029893192 -0.069063574 1.1780001
-0.027831592 -0.069063574 1.1780001
-0.025748115 -0.069004945 1.177
-0.12080833 -0.067115732 1.1800001
-0.11854197 -0.067001984 1.1780001
-0.11608484 -0.066774465 1.174
-0.11383599 -0.06666071 1.1720001
-0.11149874 -0.066490076 1.169
-0.10907838 -0.066262566 1.1650001
-0.1067639 -0.06609194 1.1620001
-0.1044599 -0.065921299 1.159
-0.10207804 -0.065693788 1.1550001
-0.099710181 -0.065466277 1.151
-0.097356319 -0.065238774 1.1470001
-0.095265836 -0.065181889 1.146
-0.093016103 -0.065011255 1.143
-0.091095388 -0.065068133 1.1440001
-0.089015409 -0.065011255 1.143
-0.087167323 -0.065125011 1.1450001
-0.085089102 -0.065068133 1.1440001
-0.083232261 -0.065181889 1.146
-0.081084907 -0.065068133 1.1440001
-0.079013675 -0.065011255 1.143
-0.077013336 -0.065011255 1.143
-0.074947365 -0.064954378 1.1420001
-0.072948761 -0.064954378 1.1420001
-0.070950173 -0.064954378 1.1420001
-0.069072329 -0.065068133 1.1440001
-0.067128859 -0.065125011 1.1450001
-0.065181889 -0.065181889 1.146
-0.06312117 -0.065125011 1.1450001
