# .PCD v0.7 - Point Cloud Data file format
VERSION 0.7
FIELDS x y z
SIZE 4 4 4
TYPE F F F
COUNT 1 1 1
WIDTH 1426
HEIGHT 1
VIEWPOINT 0 0 0 1 0 0 0
POINTS 1426
DATA ascii
-0.088689893 -0.098884135 1.1650001
-0.086874187 -0.099138781 1.1680001
-0.084902711 -0.099223658 1.169
-0.082927741 -0.099308535 1.1700001
-0.080949277 -0.099393405 1.171
-0.079102062 -0.099648051 1.174
-0.077309974 -0.099987566 1.1780001
-0.075503886 -0.10032708 1.182
-0.073683806 -0.1006666 1.1860001
-0.071849711 -0.10100612 1.1900001
-0.07029476 -0.10177002 1.199
-0.06865143 -0.10244906 1.207
-0.06664934 -0.10261882 1.2090001
-0.064319976 -0.1022793 1.205
-0.062314373 -0.10244906 1.207
-0.0607008 -0.10329785 1.217
-0.15554488 -0.099172905 1.1930001
-0.15281387 -0.09875726 1.1880001
-0.15213044 -0.099671669 1.199
-0.15053262 -0.10000419 1.2030001
-0.14793375 -0.099671669 1.199
-0.14547051 -0.099422291 1.1960001
-0.14325753 -0.099339157 1.1950001
-0.14116618 -0.099339157 1.1950001
-0.13860931 -0.099006653 1.1910001
-0.13583717 -0.098507866 1.1850001
-0.13342468 -0.09825848 1.182
-0.13135608 -0.09825848 1.182
-0.12917811 -0.098175354 1.1810001
-0.12668073 -0.097842835 1.177
-0.12440912 -0.097676583 1.1750001
-0.12214451 -0.09751033 1.1730001
-0.12009166 -0.09751033 1.1730001
-0.11783754 -0.097344063 1.171
-0.11559044 -0.097177804 1.169
-0.11344747 -0.097094677 1.1680001
-0.11140337 -0.097094677 1.1680001
-0.10935927 -0.097094677 1.1680001
-0.10713141 -0.096928418 1.166
-0.10500069 -0.096845292 1.1650001
-0.10287345 -0.096762158 1.164
-0.10083635 -0.096762158 1.164
-0.098799258 -0.096762158 1.164
-0.096845292 -0.096845292 1.1650001
-0.094887823 -0.096928418 1.166
-0.092847221 -0.096928418 1.166
-0.090884507 -0.097011551 1.1670001
-0.088918291 -0.097094677 1.1680001
-0.086948566 -0.097177804 1.169
-0.084975347 -0.097260937 1.1700001
-0.082927741 -0.097260937 1.1700001
-0.081018403 -0.097427189 1.1720001
-0.079169437 -0.097676583 1.1750001
-0.077375598 -0.098009095 1.179
-0.075440012 -0.098175354 1.1810001
-0.073497415 -0.098341614 1.1830001
-0.071668573 -0.098674133 1.187
-0.070060246 -0.099339157 1.1950001
-0.068367042 -0.099921063 1.202
-0.066483952 -0.10025358 1.2060001
-0.064373352 -0.10025358 1.2060001
-0.062159494 -0.10008733 1.2040001
-0.060102273 -0.10017045 1.205
-0.058474693 -0.10100174 1.215
-0.15710945 -0.098061599 1.205
-0.15410018 -0.09749195 1.1980001
-0.15263799 -0.097898841 1.2030001
-0.15028237 -0.097736083 1.2010001
-0.14768699 -0.09741056 1.197
-0.14522724 -0.097166426 1.194
-0.14301777 -0.097085051 1.1930001
-0.14092991 -0.097085051 1.1930001
-0.13860931 -0.096922293 1.1910001
-0.1359518 -0.096515402 1.1860001
-0.13331181 -0.096108504 1.1810001
-0.13102268 -0.095945746 1.179
-0.12874056 -0.095782988 1.177
-0.12625021 -0.095457479 1.1730001
-0.12387972 -0.095213339 1.1700001
-0.12183212 -0.095213339 1.1700001
-0.11978453 -0.095213339 1.1700001
-0.11763629 -0.095131956 1.169
-0.11539268 -0.094969198 1.1670001
-0.11335033 -0.094969198 1.1670001
-0.11111723 -0.094806448 1.1650001
-0.10907838 -0.094806448 1.1650001
-0.1067639 -0.0945623 1.1620001
-0.10482043 -0.09464369 1.1630001
-0.1026967 -0.0945623 1.1620001
-0.1006631 -0.0945623 1.1620001
-0.098629497 -0.0945623 1.1620001
-0.096679032 -0.09464369 1.1630001
-0.094806448 -0.094806448 1.1650001
-0.092847221 -0.094887823 1.166
-0.090806618 -0.094887823 1.166
-0.088766024 -0.094887823 1.166
-0.086799808 -0.094969198 1.1670001
-0.084757462 -0.094969198 1.1670001
-0.082715109 -0.094969198 1.1670001
-0.080672756 -0.094969198 1.1670001
-0.078765169 -0.095131956 1.169
-0.076981835 -0.095457479 1.1730001
-0.075120613 -0.095701605 1.176
-0.073186778 -0.09586437 1.1780001
-0.07142707 -0.096271262 1.1830001
-0.069708481 -0.096759535 1.189
-0.067968898 -0.097247809 1.1950001
-0.066153191 -0.097654708 1.2
-0.064213216 -0.097898841 1.2030001
-0.062159494 -0.097980224 1.2040001
-0.059902765 -0.097736083 1.2010001
-0.058234055 -0.098468497 1.21
-0.15750058 -0.096191637 1.2080001
-0.15422881 -0.095474973 1.199
-0.15251109 -0.095713861 1.202
-0.15015723 -0.095554605 1.2
-0.14793375 -0.095474973 1.199
-0.14559214 -0.095315717 1.197
-0.14325753 -0.095156454 1.1950001
-0.14092991 -0.094997197 1.1930001
-0.13849291 -0.094758317 1.1900001
-0.13606644 -0.094519429 1.187
-0.13342468 -0.094121285 1.182
-0.13113382 -0.093962029 1.1800001
-0.12874056 -0.093723141 1.177
-0.12635784 -0.093484245 1.174
-0.12398559 -0.093245357 1.171
-0.12193624 -0.093245357 1.171
-0.11978453 -0.09316574 1.1700001
-0.11773692 -0.09316574 1.1700001
-0.11549157 -0.093006484 1.1680001
-0.11335033 -0.092926852 1.1670001
-0.11102185 -0.092687964 1.164
-0.10898475 -0.092687964 1.164
-0.10694765 -0.092687964 1.164
-0.1050908 -0.092847221 1.166
-0.10296184 -0.092767596 1.1650001
-0.10083635 -0.092687964 1.164
-0.098714389 -0.09260834 1.1630001
-0.096845292 -0.092767596 1.1650001
-0.094969198 -0.092926852 1.1670001
-0.093006484 -0.093006484 1.1680001
-0.090962388 -0.093006484 1.1680001
-0.088918291 -0.093006484 1.1680001
-0.086874187 -0.093006484 1.1680001
-0.08483009 -0.093006484 1.1680001
-0.082785994 -0.093006484 1.1680001
-0.080672756 -0.092926852 1.1670001
-0.078832544 -0.09316574 1.1700001
-0.076981835 -0.093404628 1.1730001
-0.075120613 -0.093643509 1.176
-0.073186778 -0.093802772 1.1780001
-0.071487442 -0.094280541 1.184
-0.06964986 -0.094599061 1.1880001
-0.067798264 -0.094917566 1.192
-0.065822415 -0.095076822 1.194
-0.064159833 -0.095713861 1.202
-0.062211119 -0.095952749 1.205
-0.060301784 -0.096271269 1.2090001
-0.058185928 -0.096271269 1.2090001
-0.15448608 -0.093532383 1.2010001
-0.15213044 -0.093376614 1.199
-0.1500321 -0.093376614 1.199
-0.14793375 -0.093376614 1.199
-0.14559214 -0.093220867 1.197
-0.14313763 -0.092987224 1.194
-0.14069366 -0.092753597 1.1910001
-0.13837655 -0.092597827 1.189
-0.13583717 -0.092286319 1.1850001
-0.13331181 -0.09197481 1.1810001
-0.13091156 -0.091741174 1.1780001
-0.12841243 -0.091429651 1.174
-0.12603495 -0.091196015 1.171
-0.12387972 -0.091118142 1.1700001
-0.12183212 -0.091118142 1.1700001
-0.11968214 -0.091040254 1.169
-0.11763629 -0.091040254 1.169
-0.11549157 -0.090962388 1.1680001
-0.11335033 -0.090884507 1.1670001
-0.11102185 -0.090650864 1.164
-0.10907838 -0.090728745 1.1650001
-0.10694765 -0.090650864 1.164
-0.1050908 -0.090806618 1.166
-0.10287345 -0.090650864 1.164
-0.1006631 -0.09049511 1.1620001
-0.098714389 -0.09057299 1.1630001
-0.096845292 -0.090728745 1.1650001
-0.094969198 -0.090884507 1.1670001
-0.092847221 -0.090806618 1.166
-0.090728745 -0.090728745 1.1650001
-0.088613771 -0.090650864 1.164
-0.086725421 -0.090806618 1.166
-0.084757462 -0.090884507 1.1670001
-0.082715109 -0.090884507 1.1670001
-0.080672756 -0.090884507 1.1670001
-0.078765169 -0.091040254 1.169
-0.076916203 -0.091273896 1.1720001
-0.074992865 -0.091429651 1.174
-0.073062517 -0.091585405 1.176
-0.071306311 -0.09197481 1.1810001
-0.069473974 -0.092286319 1.1850001
-0.067570761 -0.092519961 1.1880001
-0.065546781 -0.092597827 1.189
-0.063732818 -0.092987224 1.194
-0.061952986 -0.093454503 1.2
-0.060251903 -0.094077535 1.2080001
-0.058089674 -0.093999654 1.207
-0.056116454 -0.094233289 1.21
-0.15723982 -0.091811173 1.2060001
-0.15358564 -0.09089762 1.194
-0.15162294 -0.090973757 1.1950001
-0.14965671 -0.091049887 1.1960001
-0.14781037 -0.091202147 1.1980001
-0.14559214 -0.09112601 1.197
-0.14325753 -0.090973757 1.1950001
-0.14081177 -0.090745367 1.192
-0.13837655 -0.090516984 1.189
-0.13572253 -0.090136342 1.184
-0.13342468 -0.089984089 1.182
-0.13113382 -0.089831829 1.1800001
-0.12874056 -0.089603439 1.177
-0.12635784 -0.089375049 1.174
-0.12419736 -0.089298934 1.1730001
-0.12183212 -0.089070544 1.1700001
-0.11968214 -0.088994414 1.169
-0.11763629 -0.088994414 1.169
-0.11559044 -0.088994414 1.169
-0.11344747 -0.088918291 1.1680001
-0.11130799 -0.088842154 1.1670001
-0.109172 -0.088766024 1.166
-0.10722329 -0.088842154 1.1670001
-0.1050908 -0.088766024 1.166
-0.10305021 -0.088766024 1.166
-0.10092299 -0.088689893 1.1650001
-0.098969012 -0.088766024 1.166
-0.097011551 -0.088842154 1.1670001
-0.094969198 -0.088842154 1.1670001
-0.092847221 -0.088766024 1.166
-0.090728745 -0.088689893 1.1650001
-0.088766024 -0.088766024 1.166
-0.086948566 -0.088994414 1.169
-0.084975347 -0.089070544 1.1700001
-0.082927741 -0.089070544 1.1700001
-0.080811016 -0.088994414 1.169
-0.07889992 -0.089146666 1.171
-0.076981835 -0.089298934 1.1730001
-0.074928984 -0.089298934 1.1730001
-0.073000394 -0.089451186 1.1750001
-0.071185552 -0.089755692 1.179
-0.069356717 -0.090060212 1.1830001
-0.06740012 -0.090212472 1.1850001
-0.065326273 -0.090212472 1.1850001
-0.063412555 -0.090440862 1.1880001
-0.061591592 -0.090821505 1.1930001
-0.059952635 -0.09150666 1.202
-0.058089674 -0.091887303 1.207
-0.15961468 -0.08984933 1.2080001
-0.1567183 -0.089403048 1.202
-0.15332837 -0.088659264 1.192
-0.15124229 -0.088659264 1.192
-0.14928132 -0.088733651 1.1930001
-0.14744022 -0.088882409 1.1950001
-0.14510562 -0.088733651 1.1930001
-0.14289787 -0.088659264 1.192
-0.14045738 -0.088436134 1.189
-0.13791102 -0.088138625 1.1850001
-0.13549328 -0.08791548 1.182
-0.13319892 -0.087766729 1.1800001
-0.13080043 -0.087543592 1.177
-0.12830307 -0.087246083 1.1730001
-0.12592731 -0.087022945 1.1700001
-0.12377384 -0.086948566 1.169
-0.12151972 -0.086799808 1.1670001
-0.11947738 -0.086799808 1.1670001
-0.11743503 -0.086799808 1.1670001
-0.11549157 -0.086874187 1.1680001
-0.11344747 -0.086874187 1.1680001
-0.11140337 -0.086874187 1.1680001
-0.10907838 -0.08665105 1.1650001
-0.10703953 -0.08665105 1.1650001
-0.10500069 -0.08665105 1.1650001
-0.10305021 -0.086725421 1.166
-0.10092299 -0.08665105 1.1650001
-0.098799258 -0.08657667 1.164
-0.096762158 -0.08657667 1.164
-0.094806448 -0.08665105 1.1650001
-0.092767596 -0.08665105 1.1650001
-0.090728745 -0.08665105 1.1650001
-0.088689893 -0.08665105 1.1650001
-0.086874187 -0.086874187 1.1680001
-0.08483009 -0.086874187 1.1680001
-0.082573354 -0.08665105 1.1650001
-0.080534503 -0.08665105 1.1650001
-0.07863041 -0.086799808 1.1670001
-0.076784953 -0.087022945 1.1700001
-0.074801229 -0.087097317 1.171
-0.07281401 -0.087171696 1.1720001
-0.071004413 -0.087469205 1.176
-0.069063574 -0.087617971 1.1780001
-0.067115732 -0.087766729 1.1800001
-0.065105766 -0.087841108 1.1810001
-0.063199043 -0.088064238 1.184
-0.061333455 -0.088361755 1.1880001
-0.059553616 -0.088808022 1.194
-0.057704654 -0.089179918 1.199
-0.15448608 -0.08722683 1.2010001
-0.15213044 -0.087081566 1.199
-0.14965671 -0.086863682 1.1960001
-0.14768699 -0.08693631 1.197
-0.14522724 -0.086718418 1.194
-0.14313763 -0.086718418 1.194
-0.14045738 -0.086355284 1.189
-0.13779463 -0.085992143 1.184
-0.13537866 -0.085774265 1.1810001
-0.13308603 -0.085629001 1.179
-0.13068929 -0.085411109 1.176
-0.12830307 -0.085193232 1.1730001
-0.12603495 -0.085047968 1.171
-0.12387972 -0.084975347 1.1700001
-0.12172799 -0.084902711 1.169
-0.11968214 -0.084902711 1.169
-0.11763629 -0.084902711 1.169
-0.11568932 -0.084975347 1.1700001
-0.11373885 -0.085047968 1.171
-0.11149874 -0.084902711 1.169
-0.10926563 -0.084757462 1.1670001
-0.10713141 -0.084684826 1.166
-0.1050908 -0.084684826 1.166
-0.10322697 -0.08483009 1.1680001
-0.10118288 -0.08483009 1.1680001
-0.098969012 -0.084684826 1.166
-0.096762158 -0.08453957 1.164
-0.094806448 -0.084612206 1.1650001
-0.092926852 -0.084757462 1.1670001
-0.091040254 -0.084902711 1.169
-0.088842154 -0.084757462 1.1670001
-0.086725421 -0.084684826 1.166
-0.084612206 -0.084612206 1.1650001
-0.082573354 -0.084612206 1.1650001
-0.080534503 -0.084612206 1.1650001
-0.07863041 -0.084757462 1.1670001
-0.076784953 -0.084975347 1.1700001
-0.07486511 -0.085120596 1.1720001
-0.072876133 -0.085193232 1.1730001
-0.071004413 -0.085411109 1.176
-0.069004945 -0.085483737 1.177
-0.067058854 -0.085629001 1.179
-0.064995505 -0.085629001 1.179
-0.063092291 -0.085846886 1.182
-0.061178569 -0.086064771 1.1850001
-0.059403993 -0.086500548 1.1910001
-0.057608396 -0.08693631 1.197
-0.15564375 -0.085762881 1.21
-0.15238422 -0.085124977 1.2010001
-0.15028237 -0.085124977 1.2010001
-0.14842728 -0.085266739 1.2030001
-0.14595702 -0.0850541 1.2
-0.14325753 -0.084699705 1.1950001
-0.14045738 -0.084274426 1.189
-0.13756187 -0.083778284 1.182
-0.13514939 -0.083565645 1.179
-0.13263452 -0.083282135 1.1750001
-0.13035591 -0.083140381 1.1730001
-0.12797493 -0.082927741 1.1700001
-0.12581968 -0.082856864 1.169
-0.12377384 -0.082856864 1.169
-0.12162387 -0.082785994 1.1680001
-0.11968214 -0.082856864 1.169
-0.11763629 -0.082856864 1.169
-0.11559044 -0.082856864 1.169
-0.11354459 -0.082856864 1.169
-0.11140337 -0.082785994 1.1680001
-0.10926563 -0.082715109 1.1670001
-0.10703953 -0.082573354 1.1650001
-0.1050908 -0.082644224 1.166
-0.10305021 -0.082644224 1.166
-0.10092299 -0.082573354 1.1650001
-0.098714389 -0.082431599 1.1630001
-0.096512765 -0.082289837 1.161
-0.0945623 -0.082360715 1.1620001
-0.092687964 -0.082502477 1.164
-0.090728745 -0.082573354 1.1650001
-0.088461511 -0.082360715 1.1620001
-0.086502299 -0.082431599 1.1630001
-0.084466949 -0.082431599 1.1630001
-0.082502477 -0.082502477 1.164
-0.080534503 -0.082573354 1.1650001
-0.07863041 -0.082715109 1.1670001
-0.076653697 -0.082785994 1.1680001
-0.074673474 -0.082856864 1.169
-0.072689757 -0.082927741 1.1700001
-0.07076291 -0.083069503 1.1720001
-0.068770438 -0.083140381 1.1730001
-0.06683135 -0.083282135 1.1750001
-0.06477499 -0.083282135 1.1750001
-0.062878788 -0.083494775 1.1780001
-0.060920436 -0.08363653 1.1800001
-0.059104726 -0.083990924 1.1850001
-0.05727151 -0.084345318 1.1900001
-0.055420794 -0.084699705 1.1950001
-0.15339927 -0.083576158 1.2090001
-0.15090802 -0.083368771 1.2060001
-0.14879742 -0.083368771 1.2060001
-0.14644356 -0.083230518 1.2040001
-0.14313763 -0.082539223 1.194
-0.14033926 -0.082124457 1.1880001
-0.13756187 -0.08170969 1.182
-0.13537866 -0.081640564 1.1810001
-0.13286027 -0.081364043 1.177
-0.13057816 -0.08122579 1.1750001
-0.12819368 -0.081018403 1.1720001
-0.12592731 -0.08088015 1.1700001
-0.12377384 -0.080811016 1.169
-0.12172799 -0.080811016 1.169
-0.1198869 -0.080949277 1.171
-0.11773692 -0.08088015 1.1700001
-0.1157882 -0.080949277 1.171
-0.11364173 -0.08088015 1.1700001
-0.11159413 -0.08088015 1.1700001
-0.1094529 -0.080811016 1.169
-0.10731517 -0.080741897 1.1680001
-0.10518094 -0.080672756 1.1670001
-0.10305021 -0.080603629 1.166
-0.10100961 -0.080603629 1.166
-0.098884135 -0.080534503 1.1650001
-0.096679032 -0.08039625 1.1630001
-0.094725065 -0.080465376 1.164
-0.092687964 -0.080465376 1.164
-0.09057299 -0.08039625 1.1630001
-0.088461511 -0.080327116 1.1620001
-0.086502299 -0.08039625 1.1630001
-0.08453957 -0.080465376 1.164
-0.082644224 -0.080603629 1.166
-0.080672756 -0.080672756 1.1670001
-0.078697793 -0.080741897 1.1680001
-0.076653697 -0.080741897 1.1680001
-0.074545711 -0.080672756 1.1670001
-0.072627619 -0.080811016 1.169
-0.07070253 -0.080949277 1.171
-0.06871181 -0.081018403 1.1720001
-0.066774465 -0.081156656 1.174
-0.064719863 -0.081156656 1.174
-0.062825404 -0.081364043 1.177
-0.060920436 -0.08157143 1.1800001
-0.05900497 -0.081778817 1.1830001
-0.057223383 -0.082193583 1.189
-0.15667279 -0.0820667 1.2180001
-0.15352614 -0.08152768 1.21
-0.15090802 -0.08125817 1.2060001
-0.14867403 -0.081190787 1.205
-0.14632192 -0.081056029 1.2030001
-0.14277801 -0.080247492 1.1910001
-0.13998486 -0.079843223 1.1850001
-0.13744549 -0.079573713 1.1810001
-0.13537866 -0.079573713 1.1810001
-0.13286027 -0.079304196 1.177
-0.13057816 -0.079169437 1.1750001
-0.12819368 -0.078967303 1.1720001
-0.12581968 -0.078765169 1.169
-0.12366797 -0.078697793 1.1680001
-0.12162387 -0.078697793 1.1680001
-0.11978453 -0.078832544 1.1700001
-0.11763629 -0.078765169 1.169
-0.11559044 -0.078765169 1.169
-0.11344747 -0.078697793 1.1680001
-0.11130799 -0.07863041 1.1670001
-0.109172 -0.078563027 1.166
-0.10694765 -0.078428276 1.164
-0.10473029 -0.078293525 1.1620001
-0.10260832 -0.078226142 1.161
-0.1006631 -0.078293525 1.1620001
-0.098629497 -0.078293525 1.1620001
-0.096595906 -0.078293525 1.1620001
-0.0945623 -0.078293525 1.1620001
-0.092369452 -0.078158766 1.1600001
-0.090261467 -0.078091383 1.159
-0.088233121 -0.078091383 1.159
-0.086353526 -0.078226142 1.161
-0.084466949 -0.078360908 1.1630001
-0.082431599 -0.078360908 1.1630001
-0.08039625 -0.078360908 1.1630001
-0.078428276 -0.078428276 1.164
-0.076325551 -0.078360908 1.1630001
-0.074290209 -0.078360908 1.1630001
-0.072316982 -0.078428276 1.164
-0.07040064 -0.078563027 1.166
-0.068477303 -0.078697793 1.1680001
-0.066490076 -0.078765169 1.169
-0.064554483 -0.07889992 1.171
-0.062665261 -0.079102062 1.174
-0.060817182 -0.079371579 1.1780001
-0.058805458 -0.079438955 1.179
-0.056982744 -0.07977584 1.184
-0.15667279 -0.079935104 1.2180001
-0.1544143 -0.079869471 1.217
-0.15165879 -0.079541326 1.212
-0.14904417 -0.079278819 1.2080001
-0.14644356 -0.079016313 1.2040001
-0.14301777 -0.078294396 1.1930001
-0.14033926 -0.077966258 1.1880001
-0.13779463 -0.077703744 1.184
-0.13549328 -0.077572487 1.182
-0.13308603 -0.077375598 1.179
-0.13080043 -0.077244341 1.177
-0.12852183 -0.077113092 1.1750001
-0.12614258 -0.076916203 1.1720001
-0.12366797 -0.076653697 1.1680001
-0.12172799 -0.076719321 1.169
-0.1198869 -0.076850571 1.171
-0.11783754 -0.076850571 1.171
-0.11568932 -0.076784953 1.1700001
-0.11344747 -0.076653697 1.1680001
-0.11140337 -0.076653697 1.1680001
-0.10935927 -0.076653697 1.1680001
-0.10713141 -0.076522432 1.166
-0.10482043 -0.076325551 1.1630001
-0.10251994 -0.076128669 1.1600001
-0.10048985 -0.076128669 1.1600001
-0.098629497 -0.076259919 1.1620001
-0.096679032 -0.076325551 1.1630001
-0.0945623 -0.076259919 1.1620001
-0.092369452 -0.076128669 1.1600001
-0.090261467 -0.076063037 1.159
-0.088309258 -0.076128669 1.1600001
-0.086353526 -0.076194294 1.161
-0.084466949 -0.076325551 1.1630001
-0.082431599 -0.076325551 1.1630001
-0.08039625 -0.076325551 1.1630001
-0.078360908 -0.076325551 1.1630001
-0.076325551 -0.076325551 1.1630001
-0.074417964 -0.076456808 1.1650001
-0.072441243 -0.076522432 1.166
-0.070521399 -0.076653697 1.1680001
-0.068535931 -0.076719321 1.169
-0.066490076 -0.076719321 1.169
-0.064554483 -0.076850571 1.171
-0.062665261 -0.07704746 1.174
-0.060868807 -0.077375598 1.179
-0.058905218 -0.077506863 1.1810001
-0.057078999 -0.077835001 1.1860001
-0.15654416 -0.077739619 1.217
-0.15466809 -0.077867381 1.2190001
-0.15190908 -0.07754799 1.2140001
-0.14929093 -0.077292472 1.21
-0.14632192 -0.076845333 1.2030001
-0.14301777 -0.07620655 1.1930001
-0.14010301 -0.075759403 1.1860001
-0.13756187 -0.075503886 1.182
-0.13514939 -0.075312249 1.179
-0.13274738 -0.075120613 1.176
-0.13057816 -0.075056739 1.1750001
-0.12841243 -0.074992865 1.174
-0.12625021 -0.074928984 1.1730001
-0.12387972 -0.074737348 1.1700001
-0.12162387 -0.0746096 1.1680001
-0.11957976 -0.0746096 1.1680001
-0.11753567 -0.0746096 1.1680001
-0.11539268 -0.074545711 1.1670001
-0.1132532 -0.074481837 1.166
-0.1112126 -0.074481837 1.166
-0.109172 -0.074481837 1.166
-0.10694765 -0.074354075 1.164
-0.10455004 -0.074098572 1.1600001
-0.10225481 -0.073906936 1.1570001
-0.10014332 -0.073843054 1.156
-0.098289989 -0.073970817 1.1580001
-0.096346512 -0.074034691 1.159
-0.094236791 -0.073970817 1.1580001
-0.092210196 -0.073970817 1.1580001
-0.090183601 -0.073970817 1.1580001
-0.088156998 -0.073970817 1.1580001
-0.086204782 -0.074034691 1.159
-0.084249057 -0.074098572 1.1600001
-0.08221896 -0.074098572 1.1600001
-0.080188863 -0.074098572 1.1600001
-0.078091383 -0.074034691 1.159
-0.076063037 -0.074034691 1.159
-0.074226327 -0.074226327 1.1620001
-0.072254859 -0.074290209 1.1630001
-0.070279881 -0.074354075 1.164
-0.068301417 -0.074417964 1.1650001
-0.066262566 -0.074417964 1.1650001
-0.064444229 -0.074673474 1.169
-0.062505133 -0.074801229 1.171
-0.060713924 -0.075120613 1.176
-0.058805458 -0.075312249 1.179
-0.056982744 -0.075631641 1.184
-0.15466809 -0.075734019 1.2190001
-0.15190908 -0.07542339 1.2140001
-0.1495377 -0.075299129 1.212
-0.14656518 -0.074864231 1.205
-0.14349727 -0.074367203 1.197
-0.14045738 -0.073870182 1.189
-0.13802741 -0.073683806 1.1860001
-0.13549328 -0.073435292 1.182
-0.13331181 -0.073373161 1.1810001
-0.13091156 -0.073186778 1.1780001
-0.12863119 -0.073062517 1.176
-0.12646547 -0.073000394 1.1750001
-0.12398559 -0.072751872 1.171
-0.12172799 -0.072627619 1.169
-0.11937499 -0.072441243 1.166
-0.1173344 -0.072441243 1.166
-0.11519492 -0.072379112 1.1650001
-0.11315607 -0.072379112 1.1650001
-0.11130799 -0.072503366 1.1670001
-0.10926563 -0.072503366 1.1670001
-0.10713141 -0.072441243 1.166
-0.10482043 -0.072254859 1.1630001
-0.10243156 -0.072006345 1.159
-0.10022996 -0.071882084 1.1570001
-0.098205104 -0.071882084 1.1570001
-0.096346512 -0.072006345 1.159
-0.094155408 -0.071882084 1.1570001
-0.092130564 -0.071882084 1.1570001
-0.090027831 -0.071819961 1.156
-0.088080868 -0.071882084 1.1570001
-0.086130403 -0.071944222 1.1580001
-0.084176429 -0.072006345 1.159
-0.082148083 -0.072006345 1.159
-0.080188863 -0.072068475 1.1600001
-0.078158766 -0.072068475 1.1600001
-0.076128669 -0.072068475 1.1600001
-0.074226327 -0.072192729 1.1620001
-0.072316982 -0.072316982 1.164
-0.070219509 -0.072254859 1.1630001
-0.068242781 -0.072316982 1.164
-0.066262566 -0.072379112 1.1650001
-0.064499363 -0.072689757 1.1700001
-0.062558517 -0.07281401 1.1720001
-0.060713924 -0.073062517 1.176
-0.05875558 -0.073186778 1.1780001
-0.056934617 -0.073497415 1.1830001
-0.15628691 -0.073359154 1.215
-0.15377991 -0.073178023 1.212
-0.15115827 -0.072936513 1.2080001
-0.14855067 -0.072695009 1.2040001
-0.14607866 -0.072513871 1.2010001
-0.14337742 -0.072211981 1.1960001
-0.14033926 -0.07172896 1.1880001
-0.13791102 -0.071547821 1.1850001
-0.13560791 -0.07142707 1.1830001
-0.13342468 -0.07136669 1.182
-0.13091156 -0.07112518 1.1780001
-0.12819368 -0.07076291 1.1720001
-0.12592731 -0.070642151 1.1700001
-0.12377384 -0.070581771 1.169
-0.12162387 -0.070521399 1.1680001
-0.11937499 -0.07040064 1.166
-0.11723378 -0.070340261 1.1650001
-0.11509604 -0.070279881 1.164
-0.11296183 -0.070219509 1.1630001
-0.11092647 -0.070219509 1.1630001
-0.10870386 -0.07009875 1.161
-0.1067639 -0.07015913 1.1620001
-0.1044599 -0.069977991 1.159
-0.10225481 -0.069857247 1.1570001
-0.099883437 -0.069615722 1.153
-0.097695827 -0.06949497 1.151
-0.095847733 -0.069615722 1.153
-0.093992658 -0.069736488 1.1550001
-0.092130564 -0.069857247 1.1570001
-0.090027831 -0.06979686 1.156
-0.087928616 -0.069736488 1.1550001
-0.085907266 -0.069736488 1.1550001
-0.083813287 -0.069676101 1.154
-0.081935443 -0.06979686 1.156
-0.079981484 -0.069857247 1.1570001
-0.077956632 -0.069857247 1.1570001
-0.075800531 -0.069736488 1.1550001
-0.073970817 -0.069917619 1.1580001
-0.072006345 -0.069977991 1.159
-0.070038378 -0.070038378 1.1600001
-0.068066902 -0.07009875 1.161
-0.06609194 -0.07015913 1.1620001
-0.064333975 -0.07046102 1.1670001
-0.062398378 -0.070581771 1.169
-0.060559046 -0.070823289 1.1730001
-0.05860595 -0.070944041 1.1750001
-0.056742106 -0.071185552 1.179
-0.054957025 -0.071547821 1.1850001
-0.15602964 -0.071115553 1.2130001
-0.15352614 -0.07093966 1.21
-0.15115827 -0.07082241 1.2080001
-0.14842728 -0.070529275 1.2030001
-0.14583538 -0.07029476 1.199
-0.14337742 -0.070118874 1.1960001
-0.14081177 -0.06988436 1.192
-0.13826017 -0.06964986 1.1880001
-0.13583717 -0.069473974 1.1850001
-0.13353756 -0.069356717 1.1830001
-0.13091156 -0.069063574 1.1780001
-0.12830307 -0.068770438 1.1730001
-0.12603495 -0.068653181 1.171
-0.12377384 -0.068535931 1.169
-0.12183212 -0.06859456 1.1700001
-0.11957976 -0.068477303 1.1680001
-0.11753567 -0.068477303 1.1680001
-0.11539268 -0.068418667 1.1670001
-0.11315607 -0.068301417 1.1650001
-0.11111723 -0.068301417 1.1650001
-0.10889112 -0.06818416 1.1630001
-0.10703953 -0.068301417 1.1650001
-0.10464016 -0.068066902 1.161
-0.10198966 -0.06765651 1.154
-0.099450283 -0.067304738 1.148
-0.097271435 -0.067187488 1.146
-0.095348969 -0.067246117 1.1470001
-0.093585767 -0.067421995 1.1500001
-0.091971308 -0.067715146 1.1550001
-0.090027831 -0.067773767 1.156
-0.088004731 -0.067773767 1.156
-0.085832886 -0.06765651 1.154
-0.083740652 -0.067597881 1.153
-0.081793696 -0.06765651 1.154
-0.079774089 -0.06765651 1.154
-0.07775449 -0.06765651 1.154
-0.075669266 -0.067597881 1.153
-0.073906936 -0.067832395 1.1570001
-0.072006345 -0.067949645 1.159
-0.07009875 -0.068066902 1.161
-0.06818416 -0.06818416 1.1630001
-0.066205688 -0.068242781 1.164
-0.064389102 -0.068477303 1.1680001
-0.062451757 -0.06859456 1.1700001
-0.060559046 -0.068770438 1.1730001
-0.058556069 -0.068829067 1.174
-0.056693986 -0.069063574 1.1780001
-0.054910641 -0.069415346 1.184
-0.15564375 -0.068822064 1.21
-0.15327238 -0.068708308 1.2080001
-0.15140854 -0.068822064 1.21
-0.1483039 -0.068367042 1.202
-0.14547051 -0.068025775 1.1960001
-0.14289787 -0.067798264 1.192
-0.14057553 -0.067684516 1.1900001
-0.13791102 -0.06740012 1.1850001
-0.13537866 -0.067172617 1.1810001
-0.13297315 -0.067001984 1.1780001
-0.13046704 -0.066774465 1.174
-0.12819368 -0.06666071 1.1720001
-0.12603495 -0.066603832 1.171
-0.12387972 -0.066546954 1.1700001
-0.12172799 -0.066490076 1.169
-0.11947738 -0.066376321 1.1670001
-0.11743503 -0.066376321 1.1670001
-0.11539268 -0.066376321 1.1670001
-0.11315607 -0.066262566 1.1650001
-0.11092647 -0.066148818 1.1630001
-0.10870386 -0.066035055 1.161
-0.10658014 -0.065978184 1.1600001
-0.10391913 -0.065580033 1.153
-0.10128263 -0.065181889 1.146
-0.09884388 -0.0648975 1.141
-0.096677288 -0.064783745 1.1390001
-0.094767071 -0.064840622 1.1400001
-0.093016103 -0.065011255 1.143
-0.091334276 -0.065238774 1.1470001
-0.089560568 -0.065409407 1.1500001
-0.087700225 -0.065523155 1.1520001
-0.0857585 -0.065580033 1.153
-0.083668031 -0.065523155 1.1520001
-0.081722803 -0.065580033 1.153
-0.079635836 -0.065523155 1.1520001
-0.077484988 -0.065409407 1.1500001
-0.075275503 -0.065238774 1.1470001
-0.073459789 -0.065409407 1.1500001
-0.071757831 -0.065693788 1.1550001
-0.070038378 -0.065978184 1.1600001
-0.068125531 -0.06609194 1.1620001
-0.066205688 -0.066205688 1.164
-0.064223722 -0.066262566 1.1650001
-0.062291626 -0.066376321 1.1670001
-0.060404163 -0.066546954 1.1700001
-0.058456313 -0.06666071 1.1720001
-0.056597725 -0.066888221 1.176
-0.054864269 -0.067286365 1.1830001
-0.15390679 -0.066869847 1.2130001
-0.15190908 -0.066924982 1.2140001
-0.14904417 -0.066594206 1.2080001
-0.14559214 -0.065987803 1.197
-0.14289787 -0.065712161 1.192
-0.14057553 -0.065601908 1.1900001
-0.13802741 -0.065381408 1.1860001
-0.13549328 -0.065160885 1.182
-0.13308603 -0.064995505 1.179
-0.13080043 -0.064885251 1.177
-0.12852183 -0.06477499 1.1750001
-0.12646547 -0.06477499 1.1750001
-0.12419736 -0.064664744 1.1730001
-0.12193624 -0.064554483 1.171
-0.11957976 -0.064389102 1.1680001
-0.11743503 -0.064333975 1.1670001
-0.11529379 -0.064278841 1.166
-0.11315607 -0.064223722 1.1650001
-0.11102185 -0.064168587 1.164
-0.10898475 -0.064168587 1.164
-0.10658014 -0.06394808 1.1600001
-0.10373887 -0.063451931 1.151
-0.10092912 -0.062955789 1.1420001
-0.098583996 -0.062735267 1.138
-0.096592396 -0.062735267 1.138
-0.09468393 -0.062790401 1.1390001
-0.092934728 -0.062955789 1.1420001
-0.09117502 -0.06312117 1.1450001
-0.089249045 -0.063176289 1.146
-0.087547973 -0.063396804 1.1500001
-0.085684128 -0.063507058 1.1520001
-0.083740652 -0.063562185 1.153
-0.081722803 -0.063562185 1.153
-0.079635836 -0.063507058 1.1520001
-0.077552356 -0.063451931 1.151
-0.075472392 -0.063396804 1.1500001
-0.073523663 -0.063451931 1.151
-0.071757831 -0.063672446 1.1550001
-0.070038378 -0.06394808 1.1600001
-0.068125531 -0.064058334 1.1620001
-0.066205688 -0.064168587 1.164
-0.064278841 -0.064278841 1.166
-0.062398378 -0.064444229 1.169
-0.06045578 -0.064554483 1.171
-0.058456313 -0.064609617 1.1720001
-0.056597725 -0.064830117 1.176
-0.054771516 -0.065105766 1.1810001
-0.14978448 -0.064800374 1.2140001
-0.14607866 -0.064106472 1.2010001
-0.14325753 -0.063786201 1.1950001
-0.14081177 -0.063626066 1.192
-0.13802741 -0.063305803 1.1860001
-0.13537866 -0.063038915 1.1810001
-0.13308603 -0.062932156 1.179
-0.13091156 -0.062878788 1.1780001
-0.12874056 -0.062825404 1.177
-0.12625021 -0.062611893 1.1730001
-0.12398559 -0.062505133 1.171
-0.12162387 -0.062345009 1.1680001
-0.11937499 -0.062238246 1.166
-0.11723378 -0.06218487 1.1650001
-0.11499716 -0.062078118 1.1630001
-0.11276755 -0.061971355 1.161
-0.11073571 -0.061971355 1.161
-0.10870386 -0.061971355 1.161
-0.10612074 -0.061651092 1.1550001
-0.10328823 -0.061170693 1.146
-0.10075235 -0.060850438 1.1400001
-0.098497376 -0.060690299 1.1370001
-0.096592396 -0.060743671 1.138
-0.09485019 -0.06090381 1.141
-0.093097486 -0.061063942 1.1440001
-0.09117502 -0.061117325 1.1450001
-0.089171171 -0.061117325 1.1450001
-0.087243453 -0.061170693 1.146
-0.085386612 -0.061277449 1.148
-0.083522774 -0.061384212 1.1500001
-0.081510179 -0.061384212 1.1500001
-0.079566702 -0.061437581 1.151
-0.077552356 -0.061437581 1.151
-0.075472392 -0.061384212 1.1500001
-0.073523663 -0.061437581 1.151
-0.071695708 -0.06159772 1.154
-0.069917619 -0.061811231 1.1580001
-0.068008281 -0.061917983 1.1600001
-0.06609194 -0.062024739 1.1620001
-0.064168587 -0.062131494 1.164
-0.062291626 -0.062291626 1.1670001
-0.06035253 -0.062398378 1.169
-0.058356561 -0.062451757 1.1700001
-0.056501471 -0.062665261 1.174
-0.054632384 -0.062878788 1.1780001
-0.14620028 -0.062056236 1.202
-0.14349727 -0.061798099 1.197
-0.14081177 -0.061539963 1.192
-0.13814378 -0.06128183 1.187
-0.13549328 -0.061023686 1.182
-0.13308603 -0.060868807 1.179
-0.13091156 -0.060817182 1.1780001
-0.12874056 -0.06076555 1.177
-0.12635784 -0.060610667 1.174
-0.12398559 -0.06045578 1.171
-0.12162387 -0.060300905 1.1680001
-0.11947738 -0.06024928 1.1670001
-0.11723378 -0.060146026 1.1650001
-0.11499716 -0.060042769 1.1630001
-0.11276755 -0.059939511 1.161
-0.11083109 -0.059991144 1.1620001
-0.10870386 -0.059939511 1.161
-0.10612074 -0.05962975 1.1550001
-0.10346849 -0.059268355 1.148
-0.10119426 -0.059113476 1.1450001
-0.098930515 -0.058958594 1.1420001
-0.097016796 -0.059010219 1.143
-0.095099583 -0.059061844 1.1440001
-0.093504377 -0.05931998 1.149
-0.09173242 -0.059474863 1.1520001
-0.089560568 -0.059371613 1.1500001
-0.087395705 -0.059268355 1.148
-0.085386612 -0.059268355 1.148
-0.083522774 -0.059371613 1.1500001
-0.081510179 -0.059371613 1.1500001
-0.079566702 -0.059423238 1.151
-0.077619739 -0.059474863 1.1520001
-0.075734898 -0.059578124 1.154
-0.073715299 -0.059578124 1.154
-0.071882084 -0.059733 1.1570001
-0.069977991 -0.059836257 1.159
-0.068066902 -0.059939511 1.161
-0.066148818 -0.060042769 1.1630001
-0.064278841 -0.060197648 1.166
-0.062345009 -0.060300905 1.1680001
-0.06035253 -0.06035253 1.169
-0.058406439 -0.06045578 1.171
-0.056453347 -0.060559046 1.1730001
-0.054586004 -0.06076555 1.177
-0.0529278 -0.061230201 1.1860001
-0.14607866 -0.059902765 1.2010001
-0.14349727 -0.059703253 1.197
-0.14081177 -0.05945386 1.192
-0.13802741 -0.0591546 1.1860001
-0.13537866 -0.058905218 1.1810001
-0.13286027 -0.058705702 1.177
-0.13080043 -0.058705702 1.177
-0.12863119 -0.058655821 1.176
-0.12635784 -0.058556069 1.174
-0.12398559 -0.058406439 1.171
-0.12162387 -0.058256809 1.1680001
-0.11947738 -0.058206931 1.1670001
-0.11713314 -0.058057293 1.164
-0.11489828 -0.057957541 1.1620001
-0.11276755 -0.057907663 1.161
-0.11092647 -0.058007423 1.1630001
-0.10861024 -0.057857785 1.1600001
-0.10612074 -0.057608403 1.1550001
-0.10364875 -0.057359014 1.1500001
-0.10163615 -0.057359014 1.1500001
-0.099450283 -0.057259254 1.148
-0.097271435 -0.057159498 1.146
-0.095265836 -0.057159498 1.146
-0.093422994 -0.057259254 1.148
-0.091573164 -0.057359014 1.1500001
-0.08948268 -0.057309136 1.149
-0.087395705 -0.057259254 1.148
-0.085386612 -0.057259254 1.148
-0.083450146 -0.057309136 1.149
-0.081510179 -0.057359014 1.1500001
-0.079497583 -0.057359014 1.1500001
-0.077484988 -0.057359014 1.1500001
-0.075603642 -0.057458766 1.1520001
-0.073715299 -0.057558522 1.154
-0.071882084 -0.057708155 1.1570001
-0.069977991 -0.057807911 1.159
-0.068066902 -0.057907663 1.161
-0.066148818 -0.058007423 1.1630001
-0.064278841 -0.058157045 1.166
-0.062345009 -0.058256809 1.1680001
-0.06035253 -0.058306683 1.169
-0.058406439 -0.058406439 1.171
-0.056501471 -0.058556069 1.174
-0.054632384 -0.05875558 1.1780001
-0.0529278 -0.0591546 1.1860001
-0.14571376 -0.05765653 1.1980001
-0.14289787 -0.057367764 1.192
-0.14045738 -0.057223383 1.189
-0.13802741 -0.057078999 1.1860001
-0.13537866 -0.056838367 1.1810001
-0.13274738 -0.056597725 1.176
-0.13057816 -0.056549601 1.1750001
-0.12841243 -0.056501471 1.174
-0.12625021 -0.056453347 1.1730001
-0.12398559 -0.056357086 1.171
-0.12162387 -0.056212708 1.1680001
-0.11927262 -0.056068327 1.1650001
-0.11683125 -0.055875815 1.161
-0.11470053 -0.055827688 1.1600001
-0.11267043 -0.055827688 1.1600001
-0.11083109 -0.055923946 1.1620001
-0.1085166 -0.055779561 1.159
-0.10612074 -0.055587053 1.1550001
-0.10391913 -0.055490796 1.153
-0.10190128 -0.055490796 1.153
-0.099710181 -0.055394541 1.151
-0.097441189 -0.055250157 1.148
-0.095265836 -0.055153906 1.146
-0.093260244 -0.055153906 1.146
-0.09117502 -0.055105783 1.1450001
-0.089171171 -0.055105783 1.1450001
-0.087167323 -0.055105783 1.1450001
-0.085237853 -0.055153906 1.146
-0.083450146 -0.055298291 1.149
-0.081510179 -0.055346418 1.1500001
-0.079497583 -0.055346418 1.1500001
-0.077350229 -0.055250157 1.148
-0.075472392 -0.055346418 1.1500001
-0.073523663 -0.055394541 1.151
-0.071757831 -0.055587053 1.1550001
-0.06979686 -0.05563518 1.156
-0.068008281 -0.055827688 1.1600001
-0.065978184 -0.055827688 1.1600001
-0.064168587 -0.0560202 1.164
-0.062238246 -0.056116447 1.166
-0.06035253 -0.056260832 1.169
-0.058356561 -0.056308966 1.1700001
-0.056405213 -0.056405213 1.1720001
-0.054586004 -0.056645852 1.177
-0.05279392 -0.056934617 1.1830001
-0.14313763 -0.055374417 1.194
-0.14045738 -0.055142529 1.189
-0.13802741 -0.055003401 1.1860001
-0.13537866 -0.054771516 1.1810001
-0.13297315 -0.054632384 1.1780001
-0.13068929 -0.054539625 1.176
-0.12841243 -0.054446869 1.174
-0.12635784 -0.054446869 1.174
-0.12409148 -0.054354116 1.1720001
-0.12162387 -0.054168612 1.1680001
-0.11906787 -0.053936727 1.1630001
-0.11652937 -0.053704839 1.1580001
-0.11440389 -0.053658459 1.1570001
-0.1125733 -0.053751212 1.159
-0.11073571 -0.053843968 1.161
-0.1085166 -0.053751212 1.159
-0.10602885 -0.053519327 1.154
-0.103829 -0.053426575 1.1520001
-0.10163615 -0.053333819 1.1500001
-0.099623546 -0.053333819 1.1500001
-0.097356319 -0.05319469 1.1470001
-0.095348969 -0.05319469 1.1470001
-0.093178868 -0.053101934 1.1450001
-0.09117502 -0.053101934 1.1450001
-0.08909329 -0.053055558 1.1440001
-0.087015063 -0.053009175 1.143
-0.085014716 -0.053009175 1.143
-0.08315964 -0.053101934 1.1450001
-0.081297539 -0.05319469 1.1470001
-0.079290196 -0.05319469 1.1470001
-0.077282853 -0.05319469 1.1470001
-0.075341128 -0.053241063 1.148
-0.073459789 -0.053333819 1.1500001
-0.071695708 -0.053519327 1.154
-0.06979686 -0.053612083 1.156
-0.067949645 -0.053751212 1.159
-0.065978184 -0.053797591 1.1600001
-0.064113468 -0.053936727 1.1630001
-0.062291626 -0.054122232 1.1670001
-0.06035253 -0.054214984 1.169
-0.058356561 -0.054261364 1.1700001
-0.056405213 -0.054354116 1.1720001
-0.054539625 -0.054539625 1.176
-0.05279392 -0.054864269 1.1830001
-0.14057553 -0.053106308 1.1900001
-0.13802741 -0.0529278 1.1860001
-0.13537866 -0.052704666 1.1810001
-0.13286027 -0.052526154 1.177
-0.13046704 -0.05239227 1.174
-0.12819368 -0.05230302 1.1720001
-0.12603495 -0.052258391 1.171
-0.12387972 -0.052213769 1.1700001
-0.12151972 -0.052079882 1.1670001
-0.11896548 -0.051856749 1.1620001
-0.11642873 -0.051633611 1.1570001
-0.114305 -0.051588982 1.156
-0.11237904 -0.051633611 1.1570001
-0.11044958 -0.051678244 1.1580001
-0.10823571 -0.051588982 1.156
-0.10575322 -0.051365849 1.151
-0.10364875 -0.051321223 1.1500001
-0.10145938 -0.051231965 1.148
-0.099190407 -0.05109809 1.1450001
-0.097016796 -0.051008828 1.143
-0.09501645 -0.051008828 1.143
-0.092934728 -0.050964206 1.1420001
-0.090776883 -0.050874956 1.1400001
-0.088781781 -0.050874956 1.1400001
-0.08671055 -0.050830327 1.1390001
-0.084717207 -0.050830327 1.1390001
-0.082796492 -0.050874956 1.1400001
-0.080943152 -0.050964206 1.1420001
-0.079082809 -0.051053457 1.1440001
-0.077080712 -0.051053457 1.1440001
-0.075209871 -0.051142715 1.146
-0.073332027 -0.051231965 1.148
-0.071571454 -0.051410478 1.1520001
-0.069676101 -0.051499732 1.154
-0.067832395 -0.051633611 1.1570001
-0.065807544 -0.051633611 1.1570001
-0.064003207 -0.05181212 1.161
-0.062131494 -0.051946003 1.164
-0.06024928 -0.052079882 1.1670001
-0.058256809 -0.052124511 1.1680001
-0.056308966 -0.052213769 1.1700001
-0.0544005 -0.052347649 1.1730001
-0.052570783 -0.052570783 1.1780001
-0.1412843 -0.051280972 1.1960001
-0.13826017 -0.050937958 1.1880001
-0.13549328 -0.050680693 1.182
-0.13308603 -0.050552059 1.179
-0.13068929 -0.050423428 1.176
-0.12841243 -0.050337672 1.174
-0.12614258 -0.05025192 1.1720001
-0.12409148 -0.05025192 1.1720001
-0.12172799 -0.050123289 1.169
-0.11927262 -0.049951781 1.1650001
-0.11673062 -0.049737398 1.1600001
-0.11440389 -0.049608767 1.1570001
-0.11247617 -0.049651645 1.1580001
-0.11064033 -0.049737398 1.1600001
-0.10832934 -0.049608767 1.1570001
-0.10593697 -0.049437255 1.153
-0.10373887 -0.049351502 1.151
-0.10163615 -0.049308628 1.1500001
-0.099450283 -0.049222868 1.148
-0.097101673 -0.049051363 1.1440001
-0.09501645 -0.049008485 1.143
-0.092853352 -0.048922729 1.141
-0.090776883 -0.048879854 1.1400001
-0.088703893 -0.04883698 1.1390001
-0.08678668 -0.048879854 1.1400001
-0.084791586 -0.048879854 1.1400001
-0.082723856 -0.04883698 1.1390001
-0.080872275 -0.048922729 1.141
-0.079013675 -0.049008485 1.143
-0.07721547 -0.049137119 1.146
-0.075341128 -0.049222868 1.148
-0.073395915 -0.04926575 1.149
-0.07163357 -0.049437255 1.153
-0.069736488 -0.049523011 1.1550001
-0.067891024 -0.049651645 1.1580001
-0.065921299 -0.049694516 1.159
-0.064003207 -0.049780272 1.161
-0.06218487 -0.049951781 1.1650001
-0.060300905 -0.050080415 1.1680001
-0.058306683 -0.050123289 1.169
-0.056308966 -0.050166167 1.1700001
-0.0544005 -0.050294802 1.1730001
-0.052570783 -0.050509185 1.1780001
-0.050809324 -0.050809324 1.1850001
-0.13814378 -0.048817724 1.187
-0.13537866 -0.048570964 1.1810001
-0.13297315 -0.048447587 1.1780001
-0.13057816 -0.048324201 1.1750001
-0.12841243 -0.048283074 1.174
-0.12592731 -0.048118569 1.1700001
-0.12377384 -0.048077438 1.169
-0.12151972 -0.047995187 1.1670001
-0.11927262 -0.047912937 1.1650001
-0.11673062 -0.047707301 1.1600001
-0.11450278 -0.047625046 1.1580001
-0.11237904 -0.047583915 1.1570001
-0.11044958 -0.047625046 1.1580001
-0.10814209 -0.047501665 1.1550001
-0.1058451 -0.047378283 1.1520001
-0.10364875 -0.047296029 1.1500001
-0.10154776 -0.047254901 1.149
-0.099277027 -0.047131516 1.146
-0.097016796 -0.047008138 1.143
-0.094767071 -0.04688476 1.1400001
-0.092527829 -0.046761379 1.1370001
-0.090458356 -0.046720251 1.136
-0.088470258 -0.046720251 1.136
-0.08663442 -0.046802502 1.138
-0.084642828 -0.046802502 1.138
-0.082651228 -0.046802502 1.138
-0.080801398 -0.04688476 1.1400001
-0.079013675 -0.047008138 1.143
-0.07721547 -0.047131516 1.146
-0.075275503 -0.047172651 1.1470001
-0.073268153 -0.047172651 1.1470001
-0.071385063 -0.047254901 1.149
-0.069434598 -0.047296029 1.1500001
-0.06765651 -0.047460537 1.154
-0.065750666 -0.047542788 1.156
-0.063837834 -0.047625046 1.1580001
-0.061971355 -0.047748424 1.161
-0.060146026 -0.047912937 1.1650001
-0.058157045 -0.04795406 1.166
-0.056164581 -0.047995187 1.1670001
-0.054214984 -0.048077438 1.169
-0.05239227 -0.048283074 1.174
-0.050594937 -0.048529837 1.1800001
-0.13895844 -0.047016013 1.194
-0.1359518 -0.046701003 1.1860001
-0.13353756 -0.04658287 1.1830001
-0.13102268 -0.046425361 1.179
-0.12874056 -0.046346609 1.177
-0.12625021 -0.0461891 1.1730001
-0.12398559 -0.046110343 1.171
-0.12172799 -0.046031591 1.169
-0.11937499 -0.045913462 1.166
-0.11703251 -0.045795336 1.1630001
-0.11479941 -0.045716573 1.161
-0.11267043 -0.045677204 1.1600001
-0.11054495 -0.045637824 1.159
-0.10832934 -0.045559071 1.1570001
-0.10602885 -0.045440938 1.154
-0.10373887 -0.045322809 1.151
-0.10154776 -0.045244053 1.149
-0.099363662 -0.0451653 1.1470001
-0.097186558 -0.045086548 1.1450001
-0.094933324 -0.044968415 1.1420001
-0.092690587 -0.044850286 1.1390001
-0.090697244 -0.044850286 1.1390001
-0.088703893 -0.044850286 1.1390001
-0.08686281 -0.044929039 1.141
-0.084865957 -0.044929039 1.141
-0.083014376 -0.045007791 1.143
-0.081226662 -0.04512592 1.146
-0.079359323 -0.045204677 1.148
-0.077417605 -0.045244053 1.149
-0.075341128 -0.045204677 1.148
-0.073332027 -0.045204677 1.148
-0.071385063 -0.045244053 1.149
-0.069434598 -0.045283433 1.1500001
-0.067715146 -0.045480315 1.1550001
-0.065864421 -0.045598447 1.1580001
-0.064003207 -0.045716573 1.161
-0.062078118 -0.045795336 1.1630001
-0.060197648 -0.045913462 1.166
-0.058256809 -0.045992218 1.1680001
-0.056260832 -0.046031591 1.169
-0.054354116 -0.046149723 1.1720001
-0.052570783 -0.046385989 1.1780001
-0.050766442 -0.046622243 1.184
-0.13652496 -0.044813536 1.1910001
-0.13376331 -0.044587772 1.1850001
-0.13135608 -0.044474892 1.182
-0.12874056 -0.044286758 1.177
-0.12625021 -0.044136252 1.1730001
-0.12387972 -0.044023372 1.1700001
-0.12172799 -0.043985743 1.169
-0.11947738 -0.043910492 1.1670001
-0.11723378 -0.043835238 1.1650001
-0.11499716 -0.043759983 1.1630001
-0.11267043 -0.043647103 1.1600001
-0.11025881 -0.043496594 1.156
-0.10795482 -0.04338371 1.153
-0.10566134 -0.043270838 1.1500001
-0.10355861 -0.043233208 1.149
-0.10137101 -0.043157954 1.1470001
-0.099103771 -0.043045074 1.1440001
-0.096931927 -0.042969819 1.1420001
-0.094767071 -0.042894568 1.1400001
-0.092690587 -0.042856939 1.1390001
-0.090697244 -0.042856939 1.1390001
-0.088781781 -0.042894568 1.1400001
-0.08693894 -0.042969819 1.1420001
-0.084940344 -0.042969819 1.1420001
-0.083014376 -0.043007448 1.143
-0.081155792 -0.043082703 1.1450001
-0.079290196 -0.043157954 1.1470001
-0.077148095 -0.043082703 1.1450001
-0.075078614 -0.043045074 1.1440001
-0.073140398 -0.043082703 1.1450001
-0.07119868 -0.043120325 1.146
-0.06925346 -0.043157954 1.1470001
-0.067480624 -0.043308459 1.151
-0.065693788 -0.043458972 1.1550001
-0.063782699 -0.043534223 1.1570001
-0.061864607 -0.043609474 1.159
-0.060042769 -0.043759983 1.1630001
-0.058107179 -0.043835238 1.1650001
-0.056164581 -0.043910492 1.1670001
-0.054261364 -0.044023372 1.1700001
-0.052481528 -0.044249129 1.176
-0.050680693 -0.044474892 1.182
-0.13410197 -0.042621553 1.1880001
-0.13168947 -0.042513922 1.1850001
-0.12917811 -0.04237042 1.1810001
-0.12678836 -0.042262789 1.1780001
-0.12430323 -0.04211928 1.174
-0.12224864 -0.04211928 1.174
-0.1198869 -0.042011648 1.171
-0.11763629 -0.041939896 1.169
-0.11519492 -0.04179639 1.1650001
-0.11286469 -0.041688759 1.1620001
-0.11035419 -0.041509375 1.1570001
-0.10814209 -0.041437622 1.1550001
-0.10593697 -0.041365866 1.153
-0.10391913 -0.041365866 1.153
-0.10163615 -0.041258242 1.1500001
-0.099363662 -0.041150611 1.1470001
-0.097271435 -0.041114729 1.146
-0.095265836 -0.041114729 1.146
-0.093178868 -0.041078854 1.1450001
-0.091095388 -0.041042976 1.1440001
-0.089015409 -0.041007098 1.143
-0.0870912 -0.041042976 1.1440001
-0.085014716 -0.041007098 1.143
-0.083014376 -0.041007098 1.143
-0.081014022 -0.041007098 1.143
-0.079013675 -0.041007098 1.143
-0.077013336 -0.041007098 1.143
-0.075078614 -0.041042976 1.1440001
-0.073076516 -0.041042976 1.1440001
-0.07119868 -0.041114729 1.146
-0.069374219 -0.04122236 1.149
-0.067597881 -0.041365866 1.153
-0.065750666 -0.041473497 1.156
-0.063837834 -0.041545253 1.1580001
-0.061971355 -0.041652881 1.161
-0.060094394 -0.041760512 1.164
-0.058206931 -0.041868143 1.1670001
-0.056308966 -0.04197577 1.1700001
-0.0544005 -0.042083401 1.1730001
-0.052615408 -0.04229866 1.179
-0.050766442 -0.042478044 1.184
-0.13410197 -0.040542454 1.1880001
-0.13168947 -0.040440075 1.1850001
-0.12917811 -0.040303569 1.1810001
-0.12678836 -0.040201191 1.1780001
-0.12430323 -0.040064678 1.174
-0.12214451 -0.040030558 1.1730001
-0.11978453 -0.039928176 1.1700001
-0.11783754 -0.039962295 1.171
-0.11529379 -0.039791662 1.166
-0.11296183 -0.039689288 1.1630001
-0.11025881 -0.0394504 1.156
-0.10814209 -0.039416272 1.1550001
-0.10593697 -0.039348017 1.153
-0.10400926 -0.039382145 1.154
-0.10181291 -0.039313894 1.1520001
-0.099536918 -0.039211512 1.149
-0.097356319 -0.039143261 1.1470001
-0.095182717 -0.03907501 1.1450001
-0.093016103 -0.039006751 1.143
-0.0908565 -0.0389385 1.141
-0.088781781 -0.038904376 1.1400001
-0.08678668 -0.038904376 1.1400001
-0.084717207 -0.038870245 1.1390001
-0.082651228 -0.038836118 1.138
-0.080659635 -0.038836118 1.138
-0.07873717 -0.038870245 1.1390001
-0.076878577 -0.0389385 1.141
-0.074947365 -0.038972627 1.1420001
-0.073012643 -0.039006751 1.143
-0.071074426 -0.039040878 1.1440001
-0.06925346 -0.039143261 1.1470001
-0.067421995 -0.039245639 1.1500001
-0.065523155 -0.039313894 1.1520001
-0.063562185 -0.039348017 1.153
-0.061757851 -0.039484527 1.1570001
-0.059939511 -0.039621033 1.161
-0.058107179 -0.039757539 1.1650001
-0.056212708 -0.039859924 1.1680001
-0.054354116 -0.039996427 1.1720001
-0.052481528 -0.040132929 1.176
-0.050509185 -0.040201191 1.1780001
-0.13466635 -0.038625237 1.1930001
-0.13202286 -0.03846335 1.1880001
-0.12950623 -0.038333844 1.184
-0.12711126 -0.038236719 1.1810001
-0.12462088 -0.038107213 1.177
-0.12235277 -0.03804246 1.1750001
-0.1198869 -0.03791295 1.171
-0.11783754 -0.03791295 1.171
-0.11549157 -0.037815824 1.1680001
-0.11315607 -0.037718695 1.1650001
-0.11054495 -0.037524432 1.159
-0.10832934 -0.037459679 1.1570001
-0.10612074 -0.03739493 1.1550001
-0.10418952 -0.037427302 1.156
-0.10225481 -0.037459679 1.1570001
-0.099970065 -0.037362549 1.154
-0.097610958 -0.037233043 1.1500001
-0.095265836 -0.037103537 1.146
-0.093097486 -0.037038784 1.1440001
-0.091015756 -0.037006408 1.143
-0.088859655 -0.036941655 1.141
-0.08678668 -0.036909278 1.1400001
-0.084717207 -0.036876902 1.1390001
-0.082723856 -0.036876902 1.1390001
-0.080801398 -0.036909278 1.1400001
-0.078875422 -0.036941655 1.141
-0.077013336 -0.037006408 1.143
-0.075078614 -0.037038784 1.1440001
-0.073076516 -0.037038784 1.1440001
-0.07119868 -0.037103537 1.146
-0.069313832 -0.03716829 1.148
-0.067539252 -0.0372978 1.1520001
-0.065580033 -0.037330169 1.153
-0.063727573 -0.037427302 1.156
-0.061917983 -0.037556808 1.1600001
-0.060146026 -0.037718695 1.1650001
-0.058206931 -0.037783444 1.1670001
-0.056357086 -0.03791295 1.171
-0.054446869 -0.038010079 1.174
-0.052615408 -0.038171962 1.179
-0.050637819 -0.038236719 1.1810001
-0.13235626 -0.036476135 1.1910001
-0.12961562 -0.036292374 1.1850001
-0.12700363 -0.036139242 1.1800001
-0.12472676 -0.036077987 1.1780001
-0.12235277 -0.035986111 1.1750001
-0.11998928 -0.035894226 1.1720001
-0.11783754 -0.035863601 1.171
-0.11549157 -0.035771728 1.1680001
-0.11315607 -0.035679843 1.1650001
-0.11054495 -0.035496086 1.159
-0.10814209 -0.03537358 1.1550001
-0.1058451 -0.035281699 1.1520001
-0.103829 -0.035281699 1.1520001
-0.10181291 -0.035281699 1.1520001
-0.099536918 -0.035189819 1.149
-0.097101673 -0.035036687 1.1440001
-0.09485019 -0.034944806 1.141
-0.092853352 -0.034944806 1.141
-0.0908565 -0.034944806 1.141
-0.088859655 -0.034944806 1.141
-0.08663442 -0.034852929 1.138
-0.084568448 -0.034822304 1.1370001
-0.082651228 -0.034852929 1.138
-0.080801398 -0.034914184 1.1400001
-0.078944556 -0.034975436 1.1420001
-0.076878577 -0.034944806 1.141
-0.074947365 -0.034975436 1.1420001
-0.073012643 -0.035006061 1.143
-0.071136557 -0.035067316 1.1450001
-0.069193088 -0.035097938 1.146
-0.067304738 -0.035159193 1.148
-0.065352522 -0.035189819 1.149
-0.063562185 -0.035312325 1.153
-0.061757851 -0.035434831 1.1570001
-0.059991144 -0.035587963 1.1620001
-0.058107179 -0.035679843 1.1650001
-0.056212708 -0.035771728 1.1680001
-0.054307736 -0.035863601 1.171
-0.052481528 -0.036016732 1.176
-0.050552059 -0.036108613 1.179
