# .PCD v0.7 - Point Cloud Data file format
VERSION 0.7
FIELDS x y z
SIZE 4 4 4
TYPE F F F
COUNT 1 1 1
WIDTH 1411
HEIGHT 1
VIEWPOINT 0 0 0 1 0 0 0
POINTS 1411
DATA ascii
-0.06791202 -0.099256024 1.194
-0.065657042 -0.099006653 1.1910001
-0.063359179 -0.098674133 1.187
-0.061075319 -0.098341614 1.1830001
-0.058855332 -0.098092228 1.1800001
-0.056453347 -0.09751033 1.1730001
-0.054307736 -0.097344063 1.171
-0.052124511 -0.097094677 1.1680001
-0.050080415 -0.097094677 1.1680001
-0.047871806 -0.096762158 1.164
-0.045755953 -0.096595906 1.1620001
-0.043684728 -0.096512765 1.161
-0.041688759 -0.096595906 1.1620001
-0.039621033 -0.096512765 1.161
-0.037556808 -0.096429646 1.1600001
-0.035526711 -0.096429646 1.1600001
-0.033496615 -0.096429646 1.1600001
-0.031412262 -0.096263394 1.1580001
-0.029334914 -0.096097127 1.156
-0.027288191 -0.096014 1.1550001
-0.025288716 -0.096097127 1.156
-0.023285747 -0.09618026 1.1570001
-0.021279277 -0.096263394 1.1580001
-0.019252678 -0.096263394 1.1580001
-0.017270707 -0.096512765 1.161
-0.015251984 -0.096595906 1.1620001
-0.013229763 -0.096679032 1.1630001
-0.011194414 -0.096679032 1.1630001
-0.009166941 -0.096762158 1.164
-0.0071420935 -0.096928418 1.166
-0.0051058708 -0.097011551 1.1670001
-0.0030635225 -0.097011551 1.1670001
-0.0010211742 -0.097011551 1.1670001
0.0010237993 -0.097260937 1.1700001
0.0030792735 -0.09751033 1.1730001
0.0051539983 -0.097925976 1.1780001
0.0072278478 -0.098092228 1.1800001
0.0093244491 -0.09842474 1.184
0.011425425 -0.098674133 1.187
0.013536902 -0.098923512 1.1900001
0.015619502 -0.098923512 1.1900001
0.017731853 -0.099089772 1.192
0.019901082 -0.099505417 1.197
-0.076653697 -0.097654708 1.2
-0.074429341 -0.09749195 1.1980001
-0.07203085 -0.097085051 1.1930001
-0.070118874 -0.097329192 1.1960001
-0.067684516 -0.096840918 1.1900001
-0.065381408 -0.096515402 1.1860001
-0.063038915 -0.096108504 1.1810001
-0.060817182 -0.09586437 1.1780001
-0.058556069 -0.095538847 1.174
-0.056308966 -0.095213339 1.1700001
-0.054168612 -0.095050581 1.1680001
-0.051990632 -0.094806448 1.1650001
-0.049908906 -0.094725065 1.164
-0.047748424 -0.094480924 1.161
-0.045677204 -0.094399549 1.1600001
-0.043609474 -0.094318166 1.159
-0.041509375 -0.094155408 1.1570001
-0.039484527 -0.094155408 1.1570001
-0.037427302 -0.094074033 1.156
-0.035404202 -0.094074033 1.156
-0.033381104 -0.094074033 1.156
-0.031276628 -0.093829885 1.153
-0.029258784 -0.093829885 1.153
-0.027217312 -0.093748517 1.1520001
-0.025223089 -0.093829885 1.153
-0.023225369 -0.093911275 1.154
-0.021224147 -0.093992658 1.1550001
-0.019219426 -0.094074033 1.156
-0.017196327 -0.094074033 1.156
-0.015199482 -0.094236791 1.1580001
-0.013195636 -0.094399549 1.1600001
-0.011175163 -0.094480924 1.161
-0.0091433153 -0.094480924 1.161
-0.007111467 -0.094480924 1.161
-0.0050883703 -0.09464369 1.1630001
-0.0030556472 -0.094725065 1.164
-0.0010185491 -0.094725065 1.164
0.0010211742 -0.094969198 1.1670001
0.0030740229 -0.095294714 1.171
0.0051408727 -0.095620237 1.1750001
0.007203347 -0.095701605 1.176
0.0093008233 -0.096108504 1.1810001
0.011386923 -0.096271262 1.1830001
0.013502776 -0.096596777 1.187
0.015527623 -0.096271262 1.1830001
0.017597973 -0.096271262 1.1830001
0.019734826 -0.096596777 1.187
-0.076781444 -0.095713861 1.202
-0.074242949 -0.095156454 1.1950001
-0.071910091 -0.094837949 1.1910001
-0.069942996 -0.094997197 1.1930001
-0.067684516 -0.094758317 1.1900001
-0.065381408 -0.094439805 1.1860001
-0.063038915 -0.09404166 1.1810001
-0.06076555 -0.093723141 1.177
-0.058506198 -0.093404628 1.1730001
-0.056308966 -0.09316574 1.1700001
-0.054168612 -0.093006484 1.1680001
-0.051946003 -0.092687964 1.164
-0.049866032 -0.09260834 1.1630001
-0.047748424 -0.092449076 1.161
-0.045716573 -0.092449076 1.161
-0.043684728 -0.092449076 1.161
-0.041581128 -0.09228982 1.159
-0.039518654 -0.092210196 1.1580001
-0.037427302 -0.092050932 1.156
-0.035434831 -0.092130564 1.1570001
-0.033409987 -0.092130564 1.1570001
-0.031330887 -0.091971308 1.1550001
-0.029309537 -0.091971308 1.1550001
-0.027264563 -0.091891676 1.154
-0.025266843 -0.091971308 1.1550001
-0.023265621 -0.092050932 1.156
-0.021279277 -0.092210196 1.1580001
-0.019252678 -0.092210196 1.1580001
-0.017211204 -0.092130564 1.1570001
-0.015186357 -0.092130564 1.1570001
-0.01318426 -0.09228982 1.159
-0.011175163 -0.092449076 1.161
-0.0091511905 -0.092528708 1.1620001
-0.0071175932 -0.092528708 1.1620001
-0.0050883703 -0.09260834 1.1630001
-0.0030556472 -0.092687964 1.164
-0.0010194242 -0.092767596 1.1650001
0.0010220492 -0.093006484 1.1680001
0.0030766483 -0.093324997 1.1720001
0.0051496229 -0.093723141 1.177
0.0072155977 -0.093802772 1.1780001
0.0093165748 -0.094200917 1.1830001
0.011396549 -0.094280541 1.184
0.013514152 -0.094599061 1.1880001
0.015567 -0.094439805 1.1860001
0.017597973 -0.094200917 1.1830001
0.019768076 -0.094678678 1.189
-0.07646206 -0.093220867 1.197
-0.073745921 -0.09244208 1.187
-0.071547821 -0.092286319 1.1850001
-0.069473974 -0.092286319 1.1850001
-0.06740012 -0.092286319 1.1850001
-0.065105766 -0.09197481 1.1810001
-0.062825404 -0.091663294 1.177
-0.060507413 -0.091273896 1.1720001
-0.058306683 -0.091040254 1.169
-0.056164581 -0.090884507 1.1670001
-0.054029476 -0.090728745 1.1650001
-0.05181212 -0.090417229 1.161
-0.049694516 -0.090261467 1.159
-0.047625046 -0.090183601 1.1580001
-0.045559071 -0.09010572 1.1570001
-0.043534223 -0.09010572 1.1570001
-0.041509375 -0.09010572 1.1570001
-0.0394504 -0.090027831 1.156
-0.037362549 -0.089872077 1.154
-0.03537358 -0.089949958 1.1550001
-0.033294477 -0.089794196 1.153
-0.031249505 -0.089716323 1.1520001
-0.029208032 -0.089638442 1.151
-0.027193684 -0.089638442 1.151
-0.025179338 -0.089638442 1.151
-0.023185117 -0.089716323 1.1520001
-0.021205772 -0.089872077 1.154
-0.0192028 -0.089949958 1.1550001
-0.017166575 -0.089872077 1.154
-0.015160105 -0.089949958 1.1550001
-0.013150133 -0.090027831 1.156
-0.011155913 -0.090261467 1.159
-0.0091275647 -0.090261467 1.159
-0.0070992168 -0.090261467 1.159
-0.0050752442 -0.090339355 1.1600001
-0.0030503969 -0.09049511 1.1620001
-0.0010185491 -0.090650864 1.164
0.0010202992 -0.090806618 1.166
0.003071398 -0.091118142 1.1700001
0.0051321224 -0.091351777 1.1730001
0.0071910964 -0.091429651 1.174
0.0092771975 -0.091741174 1.1780001
0.011367673 -0.09197481 1.1810001
0.013502776 -0.09244208 1.187
0.015606377 -0.092597827 1.189
0.017687226 -0.092597827 1.189
0.019817954 -0.09283147 1.192
-0.078228764 -0.090745367 1.192
-0.075567767 -0.090060212 1.1830001
-0.073497415 -0.090060212 1.1830001
-0.07142707 -0.090060212 1.1830001
-0.069356717 -0.090060212 1.1830001
-0.067229487 -0.089984089 1.182
-0.064940378 -0.089679569 1.1780001
-0.062772021 -0.089527309 1.176
-0.060507413 -0.089222796 1.1720001
-0.058356561 -0.089070544 1.1700001
-0.056212708 -0.088918291 1.1680001
-0.054122232 -0.088842154 1.1670001
-0.051901374 -0.088537641 1.1630001
-0.049780272 -0.088385381 1.161
-0.047666173 -0.088233121 1.159
-0.045598447 -0.088156998 1.1580001
-0.043571852 -0.088156998 1.1580001
-0.041545253 -0.088156998 1.1580001
-0.039518654 -0.088156998 1.1580001
-0.037459679 -0.088080868 1.1570001
-0.035434831 -0.088080868 1.1570001
-0.033409987 -0.088080868 1.1570001
-0.031330887 -0.087928616 1.1550001
-0.029258784 -0.087776348 1.153
-0.027217312 -0.087700225 1.1520001
-0.025179338 -0.087624095 1.151
-0.023164989 -0.087624095 1.151
-0.02116902 -0.087700225 1.1520001
-0.019169547 -0.087776348 1.153
-0.017166575 -0.087852478 1.154
-0.015160105 -0.087928616 1.1550001
-0.013150133 -0.088004731 1.156
-0.011146287 -0.088156998 1.1580001
-0.0091118133 -0.088080868 1.1570001
-0.007093092 -0.088156998 1.1580001
-0.0050752442 -0.088309258 1.1600001
-0.0030530223 -0.088537641 1.1630001
-0.0010211742 -0.088842154 1.1670001
0.0010229242 -0.088994414 1.169
0.0030792735 -0.089298934 1.1730001
0.0051364973 -0.089375049 1.174
0.0071972217 -0.089451186 1.1750001
0.0092771975 -0.089679569 1.1780001
0.011386923 -0.090060212 1.1830001
0.013536902 -0.090593114 1.1900001
0.015672004 -0.09089762 1.194
0.017746732 -0.090821505 1.1930001
0.019867832 -0.090973757 1.1950001
-0.077769376 -0.088138625 1.1850001
-0.075376131 -0.087766729 1.1800001
-0.0732489 -0.08769235 1.179
-0.0710648 -0.087543592 1.177
-0.068946317 -0.087469205 1.176
-0.066774465 -0.087320454 1.174
-0.064609617 -0.087171696 1.1720001
-0.062451757 -0.087022945 1.1700001
-0.060197648 -0.086725421 1.166
-0.058107179 -0.08665105 1.1650001
-0.055972073 -0.086502299 1.1630001
-0.053843968 -0.086353526 1.161
-0.051767495 -0.086279154 1.1600001
-0.049780272 -0.086353526 1.161
-0.047707301 -0.086279154 1.1600001
-0.045559071 -0.086056024 1.1570001
-0.043496594 -0.085981637 1.156
-0.041509375 -0.086056024 1.1570001
-0.039416272 -0.085907266 1.1550001
-0.037362549 -0.085832886 1.154
-0.035312325 -0.0857585 1.153
-0.03335223 -0.085907266 1.1550001
-0.03130376 -0.085832886 1.154
-0.029233407 -0.085684128 1.1520001
-0.027193684 -0.085609742 1.151
-0.025135584 -0.085460991 1.149
-0.023104612 -0.085386612 1.148
-0.021095514 -0.085386612 1.148
-0.019103045 -0.085460991 1.149
-0.017092198 -0.085460991 1.149
-0.015081352 -0.085460991 1.149
-0.013093255 -0.085609742 1.151
-0.011098159 -0.0857585 1.153
-0.0090724379 -0.085684128 1.1520001
-0.007062465 -0.0857585 1.153
-0.0050577438 -0.085981637 1.156
-0.0030451468 -0.086279154 1.1600001
-0.0010194242 -0.08665105 1.1650001
0.0010211742 -0.086799808 1.1670001
0.003071398 -0.087022945 1.1700001
0.0051233717 -0.087097317 1.171
0.0071910964 -0.087320454 1.174
0.0092771975 -0.087617971 1.1780001
0.011386923 -0.087989867 1.1830001
0.013514152 -0.088361755 1.1880001
0.015645754 -0.088659264 1.192
0.017672351 -0.088361755 1.1880001
0.019734826 -0.088287376 1.187
0.022051062 -0.089254305 1.2
-0.077703744 -0.085992143 1.184
-0.075376131 -0.08570163 1.1800001
-0.073373161 -0.085774265 1.1810001
-0.0710648 -0.085483737 1.177
-0.068887696 -0.085338488 1.1750001
-0.066603832 -0.085047968 1.171
-0.064499363 -0.084975347 1.1700001
-0.062345009 -0.08483009 1.1680001
-0.060197648 -0.084684826 1.166
-0.058107179 -0.084612206 1.1650001
-0.055923946 -0.084394321 1.1620001
-0.053797591 -0.084249057 1.1600001
-0.051678244 -0.0841038 1.1580001
-0.049780272 -0.084321685 1.161
-0.047748424 -0.084321685 1.161
-0.045755953 -0.084394321 1.1620001
-0.043647103 -0.084249057 1.1600001
-0.041581128 -0.084176429 1.159
-0.039484527 -0.084031172 1.1570001
-0.03739493 -0.083885916 1.1550001
-0.03537358 -0.083885916 1.1550001
-0.03335223 -0.083885916 1.1550001
-0.031330887 -0.083885916 1.1550001
-0.029233407 -0.083668031 1.1520001
-0.027240936 -0.083740652 1.153
-0.025179338 -0.083595403 1.151
-0.023164989 -0.083595403 1.151
-0.021150645 -0.083595403 1.151
-0.019136295 -0.083595403 1.151
-0.017092198 -0.083450146 1.149
-0.015081352 -0.083450146 1.149
-0.013093255 -0.083595403 1.151
-0.011088534 -0.083668031 1.1520001
-0.0090566864 -0.083522774 1.1500001
-0.0070563396 -0.083668031 1.1520001
-0.0050533689 -0.083885916 1.1550001
-0.0030451468 -0.084249057 1.1600001
-0.0010185491 -0.08453957 1.164
0.0010220492 -0.08483009 1.1680001
0.0030766483 -0.085120596 1.1720001
0.0051321224 -0.085193232 1.1730001
0.007203347 -0.085411109 1.176
0.0092850719 -0.085629001 1.179
0.011396549 -0.085992143 1.184
0.013514152 -0.086282656 1.1880001
0.015593252 -0.086282656 1.1880001
0.0176426 -0.086137407 1.1860001
0.019718202 -0.086137407 1.1860001
0.022032686 -0.087081566 1.199
-0.079910599 -0.084061801 1.1860001
-0.077375598 -0.083565645 1.179
-0.075120613 -0.083353005 1.176
-0.073000394 -0.083282135 1.1750001
-0.07076291 -0.083069503 1.1720001
-0.068535931 -0.082856864 1.169
-0.066319443 -0.082644224 1.166
-0.064223722 -0.082573354 1.1650001
-0.062078118 -0.082431599 1.1630001
-0.059991144 -0.082360715 1.1620001
-0.057907663 -0.082289837 1.161
-0.055779561 -0.082148083 1.159
-0.053658459 -0.08200632 1.1570001
-0.051588982 -0.081935443 1.156
-0.049565885 -0.081935443 1.156
-0.047542788 -0.081935443 1.156
-0.045598447 -0.082077213 1.1580001
-0.043571852 -0.082077213 1.1580001
-0.041437622 -0.081864573 1.1550001
-0.039313894 -0.081651933 1.1520001
-0.03726542 -0.081581056 1.151
-0.035281699 -0.081651933 1.1520001
-0.033294477 -0.081722803 1.153
-0.03130376 -0.081793696 1.154
-0.029208032 -0.081581056 1.151
-0.027193684 -0.081581056 1.151
-0.025179338 -0.081581056 1.151
-0.023205241 -0.081722803 1.153
-0.02116902 -0.081651933 1.1520001
-0.019136295 -0.081581056 1.151
-0.017092198 -0.081439294 1.149
-0.015081352 -0.081439294 1.149
-0.01308188 -0.081510179 1.1500001
-0.011069284 -0.081510179 1.1500001
-0.0090566864 -0.081510179 1.1500001
-0.0070563396 -0.081651933 1.1520001
-0.0050489935 -0.081793696 1.154
-0.0030398967 -0.082077213 1.1580001
-0.0010141738 -0.082148083 1.159
0.0010176741 -0.082431599 1.1630001
0.0030608973 -0.082644224 1.166
0.0051189968 -0.082927741 1.1700001
0.0071910964 -0.083211258 1.174
0.0092771975 -0.083494775 1.1780001
0.011377298 -0.083778284 1.182
0.013457274 -0.083849162 1.1830001
0.015527623 -0.083849162 1.1830001
0.017627724 -0.083990924 1.1850001
0.019751452 -0.084203556 1.1880001
-0.079708464 -0.081778817 1.1830001
-0.077309974 -0.08143317 1.1780001
-0.075184494 -0.081364043 1.177
-0.072938263 -0.081156656 1.174
-0.07076291 -0.081018403 1.1720001
-0.068535931 -0.080811016 1.169
-0.066319443 -0.080603629 1.166
-0.064223722 -0.080534503 1.1650001
-0.062078118 -0.08039625 1.1630001
-0.060094394 -0.080465376 1.164
-0.057957541 -0.080327116 1.1620001
-0.055875815 -0.080257989 1.161
-0.053751212 -0.080119736 1.159
-0.051678244 -0.08005061 1.1580001
-0.049608767 -0.079981484 1.1570001
-0.047542788 -0.07991235 1.156
-0.045598447 -0.08005061 1.1580001
-0.043609474 -0.080119736 1.159
-0.041509375 -0.079981484 1.1570001
-0.039416272 -0.079843223 1.1550001
-0.037362549 -0.079774089 1.154
-0.03537358 -0.079843223 1.1550001
-0.03335223 -0.079843223 1.1550001
-0.031358011 -0.07991235 1.156
-0.029284159 -0.079774089 1.154
-0.027264563 -0.079774089 1.154
-0.025244966 -0.079774089 1.154
-0.023265621 -0.07991235 1.156
-0.021224147 -0.079843223 1.1550001
-0.0192028 -0.079843223 1.1550001
-0.017196327 -0.07991235 1.156
-0.015160105 -0.079843223 1.1550001
-0.013150133 -0.07991235 1.156
-0.011117411 -0.079843223 1.1550001
-0.0090881875 -0.079774089 1.154
-0.0070685903 -0.079774089 1.154
-0.0050533689 -0.079843223 1.1550001
-0.0030398967 -0.08005061 1.1580001
-0.0010141738 -0.080119736 1.159
0.0010194242 -0.080534503 1.1650001
0.0030661477 -0.080741897 1.1680001
0.0051233717 -0.080949277 1.171
0.0071849711 -0.081087537 1.1730001
0.0092693213 -0.081364043 1.177
0.011367673 -0.081640564 1.1810001
0.013457274 -0.081778817 1.1830001
0.015567 -0.081986204 1.1860001
0.017746732 -0.082470104 1.1930001
0.01991771 -0.082815744 1.1980001
-0.079371579 -0.079371579 1.1780001
-0.077178709 -0.079236813 1.176
-0.074928984 -0.079034686 1.1730001
-0.072751872 -0.07889992 1.171
-0.070521399 -0.078697793 1.1680001
-0.068418667 -0.07863041 1.1670001
-0.066205688 -0.078428276 1.164
-0.064113468 -0.078360908 1.1630001
-0.061971355 -0.078226142 1.161
-0.059939511 -0.078226142 1.161
-0.057807911 -0.078091383 1.159
-0.055779561 -0.078091383 1.159
-0.053658459 -0.077956632 1.1570001
-0.051633611 -0.077956632 1.1570001
-0.049565885 -0.077889249 1.156
-0.047501665 -0.077821873 1.1550001
-0.045480315 -0.077821873 1.1550001
-0.043458972 -0.077821873 1.1550001
-0.041401744 -0.07775449 1.154
-0.039348017 -0.077687114 1.153
-0.037330169 -0.077687114 1.153
-0.03537358 -0.077821873 1.1550001
-0.03335223 -0.077821873 1.1550001
-0.031330887 -0.077821873 1.1550001
-0.029284159 -0.07775449 1.154
-0.027264563 -0.07775449 1.154
-0.025223089 -0.077687114 1.153
-0.023205241 -0.077687114 1.153
-0.021187395 -0.077687114 1.153
-0.019152923 -0.077619739 1.1520001
-0.0171517 -0.077687114 1.153
-0.015120728 -0.077619739 1.1520001
-0.013104632 -0.077619739 1.1520001
-0.011088534 -0.077619739 1.1520001
-0.0090645617 -0.077552356 1.151
-0.0070563396 -0.077619739 1.1520001
-0.0050446177 -0.077687114 1.153
-0.0030346459 -0.077889249 1.156
-0.0010124238 -0.077956632 1.1570001
0.001016799 -0.078293525 1.1620001
0.0030582724 -0.078495659 1.1650001
0.0051233717 -0.07889992 1.171
0.0071849711 -0.079034686 1.1730001
0.0092693213 -0.079304196 1.177
0.011348421 -0.079438955 1.179
0.013423147 -0.07950633 1.1800001
0.015553875 -0.079843223 1.1850001
0.01771698 -0.080247492 1.1910001
0.019901082 -0.080651753 1.197
0.022032686 -0.080786511 1.199
-0.079438955 -0.077375598 1.179
-0.077244341 -0.077244341 1.177
-0.075120613 -0.077178709 1.176
-0.072938263 -0.07704746 1.174
-0.07070253 -0.076850571 1.171
-0.068535931 -0.076719321 1.169
-0.066262566 -0.076456808 1.1650001
-0.064168587 -0.076391175 1.164
-0.062024739 -0.076259919 1.1620001
-0.059939511 -0.076194294 1.161
-0.057857785 -0.076128669 1.1600001
-0.055779561 -0.076063037 1.159
-0.053704839 -0.075997412 1.1580001
-0.051678244 -0.075997412 1.1580001
-0.049608767 -0.07593178 1.1570001
-0.047542788 -0.075866155 1.156
-0.045519691 -0.075866155 1.156
-0.043496594 -0.075866155 1.156
-0.041437622 -0.075800531 1.1550001
-0.0394504 -0.075866155 1.156
-0.037459679 -0.07593178 1.1570001
-0.035434831 -0.07593178 1.1570001
-0.03335223 -0.075800531 1.1550001
-0.031330887 -0.075800531 1.1550001
-0.029309537 -0.075800531 1.1550001
-0.027288191 -0.075800531 1.1550001
-0.025266843 -0.075800531 1.1550001
-0.023225369 -0.075734898 1.154
-0.021242524 -0.075866155 1.156
-0.019186174 -0.075734898 1.154
-0.017181454 -0.075800531 1.1550001
-0.01514698 -0.075734898 1.154
-0.013138758 -0.075800531 1.1550001
-0.011107785 -0.075734898 1.154
-0.0090803122 -0.075669266 1.153
-0.0070563396 -0.075603642 1.1520001
-0.0050489935 -0.075734898 1.154
-0.0030346459 -0.075866155 1.156
-0.0010132989 -0.075997412 1.1580001
0.0010185491 -0.076391175 1.164
0.0030661477 -0.076653697 1.1680001
0.0051364973 -0.07704746 1.174
0.007203347 -0.077178709 1.176
0.0092850719 -0.077375598 1.179
0.011367673 -0.077506863 1.1810001
0.013457274 -0.077638119 1.1830001
0.015606377 -0.078031883 1.189
0.017761605 -0.078360021 1.194
0.019950962 -0.078753792 1.2
0.021977559 -0.078491278 1.1960001
0.024010282 -0.078294396 1.1930001
-0.08191707 -0.075695522 1.1850001
-0.079236813 -0.075120613 1.176
-0.07704746 -0.074992865 1.174
-0.074928984 -0.074928984 1.1730001
-0.072751872 -0.074801229 1.171
-0.07046102 -0.074545711 1.1670001
-0.068242781 -0.074354075 1.164
-0.066148818 -0.074290209 1.1630001
-0.064058334 -0.074226327 1.1620001
-0.061917983 -0.074098572 1.1600001
-0.059733 -0.073906936 1.1570001
-0.057658274 -0.073843054 1.156
-0.05563518 -0.073843054 1.156
-0.053612083 -0.073843054 1.156
-0.051544361 -0.073779188 1.1550001
-0.049523011 -0.073779188 1.1550001
-0.047460537 -0.073715299 1.154
-0.045401558 -0.073651418 1.153
-0.04338371 -0.073651418 1.153
-0.041329991 -0.073587552 1.1520001
-0.039382145 -0.073715299 1.154
-0.037362549 -0.073715299 1.154
-0.03537358 -0.073779188 1.1550001
-0.033265602 -0.073587552 1.1520001
-0.031249505 -0.073587552 1.1520001
-0.029208032 -0.073523663 1.151
-0.027240936 -0.073651418 1.153
-0.025244966 -0.073715299 1.154
-0.023205241 -0.073651418 1.153
-0.021205772 -0.073715299 1.154
-0.019152923 -0.073587552 1.1520001
-0.0171517 -0.073651418 1.153
-0.015133853 -0.073651418 1.153
-0.013116007 -0.073651418 1.153
-0.011098159 -0.073651418 1.153
-0.0090645617 -0.073523663 1.151
-0.0070502143 -0.073523663 1.151
-0.0050446177 -0.073651418 1.153
-0.003032021 -0.073779188 1.1550001
-0.0010106737 -0.073779188 1.1550001
0.0010150489 -0.074098572 1.1600001
0.0030582724 -0.074417964 1.1650001
0.0051277471 -0.07486511 1.1720001
0.0071910964 -0.074992865 1.174
0.0092693213 -0.075184494 1.177
0.011358047 -0.075376131 1.1800001
0.013468648 -0.075631641 1.184
0.015606377 -0.075951025 1.189
0.017731853 -0.076142661 1.192
0.01988446 -0.076398179 1.1960001
0.021904055 -0.076142661 1.192
0.02397003 -0.076078795 1.1910001
-0.079304196 -0.073124647 1.177
-0.077113092 -0.073000394 1.1750001
-0.074992865 -0.072938263 1.174
-0.072689757 -0.072689757 1.1700001
-0.07040064 -0.072441243 1.166
-0.06818416 -0.072254859 1.1630001
-0.066148818 -0.072254859 1.1630001
-0.064058334 -0.072192729 1.1620001
-0.061917983 -0.072068475 1.1600001
-0.059784632 -0.071944222 1.1580001
-0.057658274 -0.071819961 1.156
-0.055587053 -0.071757831 1.1550001
-0.053565707 -0.071757831 1.1550001
-0.051544361 -0.071757831 1.1550001
-0.049480133 -0.071695708 1.154
-0.047501665 -0.071757831 1.1550001
-0.045440938 -0.071695708 1.154
-0.043458972 -0.071757831 1.1550001
-0.041401744 -0.071695708 1.154
-0.039382145 -0.071695708 1.154
-0.03726542 -0.071509317 1.151
-0.03525107 -0.071509317 1.151
-0.033207852 -0.071447194 1.1500001
-0.031249505 -0.071571454 1.1520001
-0.029258784 -0.07163357 1.153
-0.027288191 -0.071757831 1.1550001
-0.025266843 -0.071757831 1.1550001
-0.023245497 -0.071757831 1.1550001
-0.021224147 -0.071757831 1.1550001
-0.019186174 -0.071695708 1.154
-0.017166575 -0.071695708 1.154
-0.015160105 -0.071757831 1.1550001
-0.013161508 -0.071882084 1.1570001
-0.011127036 -0.071819961 1.156
-0.0090960627 -0.071757831 1.1550001
-0.0070685903 -0.071695708 1.154
-0.0050489935 -0.071695708 1.154
-0.0030346459 -0.071819961 1.156
-0.0010124238 -0.071882084 1.1570001
0.0010159239 -0.072130598 1.161
0.0030608973 -0.072441243 1.166
0.0051233717 -0.072751872 1.171
0.0071972217 -0.073000394 1.1750001
0.0092771975 -0.073186778 1.1780001
0.011386923 -0.073497415 1.1830001
0.013480024 -0.073621668 1.1850001
0.015632629 -0.073994443 1.1910001
0.017761605 -0.074180819 1.194
0.019867832 -0.074242949 1.1950001
0.021922432 -0.074118696 1.1930001
-0.08191707 -0.071547821 1.1850001
-0.079102062 -0.070883662 1.174
-0.076981835 -0.070823289 1.1730001
-0.074737348 -0.070642151 1.1700001
-0.072503366 -0.07046102 1.1670001
-0.07015913 -0.07015913 1.1620001
-0.068008281 -0.070038378 1.1600001
-0.065978184 -0.070038378 1.1600001
-0.06394808 -0.070038378 1.1600001
-0.061811231 -0.069917619 1.1580001
-0.059681375 -0.06979686 1.156
-0.057558522 -0.069676101 1.154
-0.055490796 -0.069615722 1.153
-0.053426575 -0.06955535 1.1520001
-0.051365849 -0.06949497 1.151
-0.049351502 -0.06949497 1.151
-0.047337152 -0.06949497 1.151
-0.045322809 -0.06949497 1.151
-0.04338371 -0.069615722 1.153
-0.041365866 -0.069615722 1.153
-0.039313894 -0.06955535 1.1520001
-0.03716829 -0.069313832 1.148
-0.035128571 -0.06925346 1.1470001
-0.033121221 -0.06925346 1.1470001
-0.031168127 -0.069374219 1.149
-0.029208032 -0.06949497 1.151
-0.027240936 -0.069615722 1.153
-0.025223089 -0.069615722 1.153
-0.023225369 -0.069676101 1.154
-0.021205772 -0.069676101 1.154
-0.019186174 -0.069676101 1.154
-0.0171517 -0.069615722 1.153
-0.015120728 -0.06955535 1.1520001
-0.013104632 -0.06955535 1.1520001
-0.011078908 -0.06949497 1.151
-0.0090724379 -0.06955535 1.1520001
-0.0070563396 -0.06955535 1.1520001
-0.0050446177 -0.069615722 1.153
-0.0030293958 -0.069676101 1.154
-0.0010106737 -0.069736488 1.1550001
0.0010132989 -0.069917619 1.1580001
0.0030503969 -0.07015913 1.1620001
0.0051146215 -0.070581771 1.169
0.007203347 -0.071004413 1.176
0.0092929481 -0.071245931 1.1800001
0.011386923 -0.07142707 1.1830001
0.013502776 -0.071668573 1.187
0.01565888 -0.07203085 1.1930001
0.017791357 -0.072211981 1.1960001
0.019867832 -0.072151601 1.1950001
0.021940805 -0.072091222 1.194
0.024231669 -0.072695009 1.2040001
-0.081847943 -0.069415346 1.184
-0.079102062 -0.068829067 1.174
-0.076916203 -0.06871181 1.1720001
-0.074673474 -0.068535931 1.169
-0.072565503 -0.068477303 1.1680001
-0.070279881 -0.068242781 1.164
-0.06818416 -0.06818416 1.1630001
-0.065978184 -0.068008281 1.1600001
-0.063892953 -0.067949645 1.159
-0.061704468 -0.067773767 1.156
-0.059578124 -0.06765651 1.154
-0.057508644 -0.067597881 1.153
-0.055442672 -0.067539252 1.1520001
-0.053426575 -0.067539252 1.1520001
-0.051365849 -0.067480624 1.151
-0.049308628 -0.067421995 1.1500001
-0.047296029 -0.067421995 1.1500001
-0.045283433 -0.067421995 1.1500001
-0.04338371 -0.067597881 1.153
-0.041401744 -0.06765651 1.154
-0.039313894 -0.067539252 1.1520001
-0.03716829 -0.067304738 1.148
-0.035097938 -0.067187488 1.146
-0.033121221 -0.067246117 1.1470001
-0.031195253 -0.067421995 1.1500001
-0.029258784 -0.067597881 1.153
-0.027240936 -0.067597881 1.153
-0.025223089 -0.067597881 1.153
-0.023225369 -0.06765651 1.154
-0.021242524 -0.067773767 1.156
-0.019236052 -0.067832395 1.1570001
-0.017196327 -0.067773767 1.156
-0.015133853 -0.067597881 1.153
-0.013116007 -0.067597881 1.153
-0.011088534 -0.067539252 1.1520001
-0.0090881875 -0.06765651 1.154
-0.007062465 -0.067597881 1.153
-0.0050533689 -0.067715146 1.1550001
-0.0030346459 -0.067773767 1.156
-0.0010132989 -0.067891024 1.1580001
0.0010150489 -0.068008281 1.1600001
0.0030556472 -0.068242781 1.164
0.0051321224 -0.068770438 1.1730001
0.0072400984 -0.069298089 1.182
0.0093480749 -0.069591224 1.187
0.011425425 -0.069591224 1.187
0.013502776 -0.069591224 1.187
0.015645754 -0.06988436 1.192
0.017806232 -0.07017751 1.197
0.01991771 -0.070236139 1.1980001
0.022051062 -0.070353389 1.2
-0.081640564 -0.067172617 1.1810001
-0.079034686 -0.066717587 1.1730001
-0.076719321 -0.066490076 1.169
-0.074417964 -0.066262566 1.1650001
-0.072254859 -0.066148818 1.1630001
-0.070038378 -0.065978184 1.1600001
-0.067949645 -0.065921299 1.159
-0.065864421 -0.065864421 1.1580001
-0.063727573 -0.065750666 1.156
-0.06149096 -0.065523155 1.1520001
-0.05931998 -0.065352522 1.149
-0.057259254 -0.065295644 1.148
-0.055298291 -0.065352522 1.149
-0.053333819 -0.065409407 1.1500001
-0.051321223 -0.065409407 1.1500001
-0.04926575 -0.065352522 1.149
-0.047213774 -0.065295644 1.148
-0.0451653 -0.065238774 1.1470001
-0.043195579 -0.065295644 1.148
-0.041150611 -0.065238774 1.1470001
-0.03907501 -0.065125011 1.1450001
-0.037038784 -0.065068133 1.1440001
-0.035006061 -0.065011255 1.143
-0.033063468 -0.065125011 1.1450001
-0.031086747 -0.065181889 1.146
-0.029157281 -0.065352522 1.149
-0.02717006 -0.065409407 1.1500001
-0.025179338 -0.065466277 1.151
-0.023185117 -0.065523155 1.1520001
-0.021187395 -0.065580033 1.153
-0.019169547 -0.065580033 1.153
-0.0171517 -0.065580033 1.153
-0.01514698 -0.06563691 1.154
-0.013116007 -0.065580033 1.153
-0.011069284 -0.065409407 1.1500001
-0.0090724379 -0.065523155 1.1520001
-0.007062465 -0.065580033 1.153
-0.0050533689 -0.065693788 1.1550001
-0.003032021 -0.065693788 1.1550001
-0.0010132989 -0.065864421 1.1580001
0.0010150489 -0.065978184 1.1600001
0.0030582724 -0.066262566 1.1650001
0.0051277471 -0.06666071 1.1720001
0.0072278478 -0.067115732 1.1800001
0.0093480749 -0.067513876 1.187
0.011435051 -0.067570761 1.1880001
0.013548278 -0.067741394 1.1910001
0.01565888 -0.067855142 1.1930001
0.017850861 -0.068253286 1.2
0.019984214 -0.068367042 1.202
-0.081502296 -0.064995505 1.179
-0.079034686 -0.064664744 1.1730001
-0.076653697 -0.064389102 1.1680001
-0.074417964 -0.064223722 1.1650001
-0.072130598 -0.064003207 1.161
-0.070038378 -0.06394808 1.1600001
-0.067891024 -0.063837834 1.1580001
-0.065807544 -0.063782699 1.1570001
-0.063672446 -0.063672446 1.1550001
-0.061437581 -0.063451931 1.151
-0.059268355 -0.063286543 1.148
-0.057159498 -0.063176289 1.146
-0.055202033 -0.063231416 1.1470001
-0.053333819 -0.063396804 1.1500001
-0.051321223 -0.063396804 1.1500001
-0.04926575 -0.063341677 1.149
-0.047090396 -0.06312117 1.1450001
-0.045007791 -0.063010909 1.143
-0.04293219 -0.062900655 1.141
-0.040899474 -0.062845528 1.1400001
-0.038870245 -0.062790401 1.1390001
-0.036876902 -0.062790401 1.1390001
-0.034914184 -0.062845528 1.1400001
-0.033034593 -0.063066043 1.1440001
-0.031141 -0.063286543 1.148
-0.029208032 -0.063451931 1.151
-0.027217312 -0.063507058 1.1520001
-0.025223089 -0.063562185 1.153
-0.023205241 -0.063562185 1.153
-0.021187395 -0.063562185 1.153
-0.019152923 -0.063507058 1.1520001
-0.0171517 -0.063562185 1.153
-0.015160105 -0.063672446 1.1550001
-0.013138758 -0.063672446 1.1550001
-0.011117411 -0.063672446 1.1550001
-0.0091118133 -0.063782699 1.1570001
-0.0070992168 -0.063892953 1.159
-0.0050708689 -0.063892953 1.159
-0.0030425217 -0.063892953 1.159
-0.0010159239 -0.064003207 1.161
0.0010185491 -0.064168587 1.164
0.0030661477 -0.064389102 1.1680001
0.0051321224 -0.064664744 1.1730001
0.0072339741 -0.065105766 1.1810001
0.0093559502 -0.065491654 1.1880001
0.011463927 -0.065657042 1.1910001
0.013559652 -0.065712161 1.192
0.015645754 -0.065712161 1.192
0.017835982 -0.066098057 1.199
0.020100595 -0.06664934 1.2090001
-0.083778284 -0.063092291 1.182
-0.08122579 -0.062718645 1.1750001
-0.07889992 -0.062505133 1.171
-0.076653697 -0.062345009 1.1680001
-0.074290209 -0.062078118 1.1630001
-0.072006345 -0.061864607 1.159
-0.069857247 -0.061757851 1.1570001
-0.067715146 -0.061651092 1.1550001
-0.06563691 -0.06159772 1.154
-0.063617311 -0.06159772 1.154
-0.061437581 -0.061437581 1.151
-0.059268355 -0.061277449 1.148
-0.057109628 -0.061117325 1.1450001
-0.055105783 -0.061117325 1.1450001
-0.05319469 -0.061224073 1.1470001
-0.051187344 -0.061224073 1.1470001
-0.049094241 -0.061117325 1.1450001
-0.04688476 -0.060850438 1.1400001
-0.044732153 -0.060636923 1.136
-0.042631179 -0.060476784 1.133
-0.040576581 -0.060370035 1.131
-0.038563106 -0.060316652 1.13
-0.036617886 -0.060370035 1.131
-0.034730423 -0.060530167 1.1340001
-0.032919087 -0.060850438 1.1400001
-0.031059623 -0.061117325 1.1450001
-0.029157281 -0.061330829 1.149
-0.02717006 -0.061384212 1.1500001
-0.025201214 -0.06149096 1.1520001
-0.023185117 -0.06149096 1.1520001
-0.021132268 -0.061384212 1.1500001
-0.019119672 -0.061384212 1.1500001
-0.01712195 -0.061437581 1.151
-0.015133853 -0.061544336 1.153
-0.013116007 -0.061544336 1.153
-0.011088534 -0.06149096 1.1520001
-0.0090881875 -0.06159772 1.154
-0.007093092 -0.061811231 1.1580001
-0.005066494 -0.061811231 1.1580001
-0.0030425217 -0.061864607 1.159
-0.0010159239 -0.061971355 1.161
0.0010194242 -0.06218487 1.1650001
0.0030661477 -0.062345009 1.1680001
0.0051321224 -0.062611893 1.1730001
0.0072278478 -0.062985532 1.1800001
0.0093559502 -0.063412555 1.1880001
0.011473552 -0.063626066 1.192
0.013605156 -0.063839577 1.1960001
0.015737632 -0.063999705 1.199
0.017895486 -0.064213216 1.2030001
-0.086137407 -0.061230201 1.1860001
-0.083423898 -0.06076555 1.177
-0.081087537 -0.060559046 1.1730001
-0.078967303 -0.060507413 1.1720001
-0.076653697 -0.060300905 1.1680001
-0.074354075 -0.060094394 1.164
-0.072068475 -0.059887886 1.1600001
-0.069917619 -0.059784632 1.1580001
-0.067773767 -0.059681375 1.156
-0.065580033 -0.059526492 1.153
-0.063507058 -0.059474863 1.1520001
-0.061437581 -0.059423238 1.151
-0.05931998 -0.05931998 1.149
-0.057259254 -0.059268355 1.148
-0.055153906 -0.059165098 1.146
-0.05319469 -0.059216727 1.1470001
-0.05109809 -0.059113476 1.1450001
-0.049051363 -0.059061844 1.1440001
-0.04688476 -0.05885534 1.1400001
-0.044692781 -0.0585972 1.1350001
-0.042593554 -0.058442313 1.1320001
-0.040433075 -0.058184177 1.1270001
-0.038460728 -0.058184177 1.1270001
-0.036520757 -0.058235805 1.128
-0.034699794 -0.058493938 1.133
-0.032890208 -0.058803707 1.1390001
-0.031059623 -0.059113476 1.1450001
-0.029208032 -0.059423238 1.151
-0.027217312 -0.059474863 1.1520001
-0.025201214 -0.059474863 1.1520001
-0.023185117 -0.059474863 1.1520001
-0.02116902 -0.059474863 1.1520001
-0.019169547 -0.059526492 1.153
-0.017166575 -0.059578124 1.154
-0.01514698 -0.059578124 1.154
-0.013104632 -0.059474863 1.1520001
-0.011078908 -0.059423238 1.151
-0.0090803122 -0.059526492 1.153
-0.0071053426 -0.059887886 1.1600001
-0.0050796196 -0.059939511 1.161
-0.0030503969 -0.059991144 1.1620001
-0.0010185491 -0.060094394 1.164
0.0010211742 -0.06024928 1.1670001
0.0030740229 -0.06045578 1.171
0.0051496229 -0.06076555 1.177
0.007270725 -0.06128183 1.187
0.0093795769 -0.061488338 1.1910001
0.011502429 -0.061694849 1.1950001
0.013627907 -0.061849732 1.1980001
0.01577701 -0.062056236 1.202
0.017940113 -0.062262751 1.2060001
-0.08570163 -0.058855332 1.1800001
-0.083211258 -0.058556069 1.174
-0.081087537 -0.058506198 1.1730001
-0.07889992 -0.058406439 1.171
-0.076653697 -0.058256809 1.1680001
-0.074290209 -0.058007423 1.1630001
-0.072006345 -0.057807911 1.159
-0.069857247 -0.057708155 1.1570001
-0.067715146 -0.057608403 1.1550001
-0.065580033 -0.057508644 1.153
-0.063507058 -0.057458766 1.1520001
-0.061384212 -0.057359014 1.1500001
-0.05931998 -0.057309136 1.149
-0.057259254 -0.057259254 1.148
-0.055202033 -0.057209384 1.1470001
-0.053101934 -0.057109628 1.1450001
-0.051053457 -0.057059746 1.1440001
-0.049008485 -0.057009868 1.143
-0.046967015 -0.056959994 1.1420001
-0.044692781 -0.056610856 1.1350001
-0.042593554 -0.056461219 1.1320001
-0.040433075 -0.056211837 1.1270001
-0.038460728 -0.056211837 1.1270001
-0.036488384 -0.056211837 1.1270001
-0.034669172 -0.056461219 1.1320001
-0.032832459 -0.056710608 1.1370001
-0.031005366 -0.057009868 1.143
-0.029131902 -0.057259254 1.148
-0.02717006 -0.057359014 1.1500001
-0.025135584 -0.057309136 1.149
-0.023144865 -0.057359014 1.1500001
-0.021132268 -0.057359014 1.1500001
-0.019169547 -0.057508644 1.153
-0.017166575 -0.057558522 1.154
-0.01514698 -0.057558522 1.154
-0.013116007 -0.057508644 1.153
-0.011088534 -0.057458766 1.1520001
-0.0090881875 -0.057558522 1.154
-0.0070992168 -0.057807911 1.159
-0.0050839949 -0.057957541 1.1620001
-0.0030556472 -0.058057293 1.164
-0.0010194242 -0.058107179 1.1650001
0.0010211742 -0.058206931 1.1670001
0.0030740229 -0.058406439 1.171
0.0051539983 -0.05875558 1.1780001
0.0072768512 -0.059254356 1.1880001
0.0094110779 -0.059603497 1.1950001
0.011521679 -0.059703253 1.197
0.013650658 -0.059852883 1.2
0.015829513 -0.060152147 1.2060001
0.01795499 -0.060202025 1.207
-0.088213004 -0.057078999 1.1860001
-0.085483737 -0.056645852 1.177
-0.083069503 -0.056405213 1.1720001
-0.080949277 -0.056357086 1.171
-0.078697793 -0.056212708 1.1680001
-0.076325551 -0.055972073 1.1630001
-0.074034691 -0.055779561 1.159
-0.071819961 -0.05563518 1.156
-0.069736488 -0.055587053 1.1550001
-0.067597881 -0.055490796 1.153
-0.065466277 -0.055394541 1.151
-0.063341677 -0.055298291 1.149
-0.061224073 -0.055202033 1.1470001
-0.059216727 -0.055202033 1.1470001
-0.057209384 -0.055202033 1.1470001
-0.055153906 -0.055153906 1.146
-0.053009175 -0.055009525 1.143
-0.051008828 -0.055009525 1.143
-0.048922729 -0.054913267 1.141
-0.046925887 -0.054913267 1.141
-0.044732153 -0.054672632 1.136
-0.042668805 -0.054576378 1.1340001
-0.040540699 -0.05438387 1.13
-0.038563106 -0.05438387 1.13
-0.036617886 -0.054431997 1.131
-0.034699794 -0.054528251 1.133
-0.03280358 -0.054672632 1.136
-0.030951116 -0.054913267 1.141
-0.029055774 -0.055105783 1.1450001
-0.027122805 -0.055250157 1.148
-0.025091834 -0.055202033 1.1470001
-0.023104612 -0.055250157 1.148
-0.021095514 -0.055250157 1.148
-0.019136295 -0.055394541 1.151
-0.017136825 -0.055442672 1.1520001
-0.015133853 -0.055490796 1.153
-0.013116007 -0.055490796 1.153
-0.011117411 -0.055587053 1.1550001
-0.0090960627 -0.055587053 1.1550001
-0.0070992168 -0.055779561 1.159
-0.0050839949 -0.055923946 1.1620001
-0.0030556472 -0.0560202 1.164
-0.0010202992 -0.056116447 1.166
0.0010220492 -0.056212708 1.1680001
0.0030792735 -0.056453347 1.1730001
0.005162749 -0.056790233 1.1800001
0.0072891009 -0.05727151 1.1900001
0.0094110779 -0.057512149 1.1950001
0.011512055 -0.057560276 1.1960001
0.013627907 -0.05765653 1.1980001
0.015790137 -0.057897162 1.2030001
-0.087989867 -0.054864269 1.1830001
-0.085483737 -0.054586004 1.177
-0.083069503 -0.054354116 1.1720001
-0.080949277 -0.054307736 1.171
-0.078697793 -0.054168612 1.1680001
-0.076325551 -0.053936727 1.1630001
-0.073970817 -0.053704839 1.1580001
-0.071757831 -0.053565707 1.1550001
-0.069615722 -0.053472951 1.153
-0.067480624 -0.053380195 1.151
-0.065409407 -0.053333819 1.1500001
-0.063341677 -0.053287443 1.149
-0.061224073 -0.05319469 1.1470001
-0.059216727 -0.05319469 1.1470001
-0.057109628 -0.053101934 1.1450001
-0.055009525 -0.053009175 1.143
-0.052916426 -0.052916426 1.141
-0.050919577 -0.052916426 1.141
-0.04883698 -0.05282367 1.1390001
-0.046761379 -0.052730918 1.1370001
-0.044653401 -0.052591786 1.1340001
-0.042668805 -0.052591786 1.1340001
-0.040684212 -0.052591786 1.1340001
-0.038801994 -0.052730918 1.1370001
-0.036844522 -0.05277729 1.138
-0.034852929 -0.05277729 1.138
-0.032832459 -0.052730918 1.1370001
-0.030923992 -0.05287005 1.1400001
-0.029005021 -0.053009175 1.143
-0.027099181 -0.05319469 1.1470001
-0.025091834 -0.05319469 1.1470001
-0.02312474 -0.053287443 1.149
-0.021095514 -0.053241063 1.148
-0.019119672 -0.053333819 1.1500001
-0.017107075 -0.053333819 1.1500001
-0.015133853 -0.053472951 1.153
-0.013127383 -0.053519327 1.154
-0.011127036 -0.053612083 1.156
-0.0091118133 -0.053658459 1.1570001
-0.007093092 -0.053704839 1.1580001
-0.0050708689 -0.053751212 1.159
-0.0030530223 -0.053936727 1.1630001
-0.0010202992 -0.054075852 1.166
0.0010229242 -0.054214984 1.169
0.0030792735 -0.0544005 1.1730001
0.0051671243 -0.054771516 1.1810001
0.0072829756 -0.055142529 1.189
0.0094110779 -0.055420794 1.1950001
0.011483178 -0.055328041 1.1930001
0.013582404 -0.055374417 1.194
0.01577701 -0.055745434 1.202
-0.08769235 -0.052615408 1.179
-0.085338488 -0.052436899 1.1750001
-0.082927741 -0.052213769 1.1700001
-0.080811016 -0.052169137 1.169
-0.078495659 -0.051990632 1.1650001
-0.076063037 -0.051722866 1.159
-0.073779188 -0.051544361 1.1550001
-0.071571454 -0.051410478 1.1520001
-0.069434598 -0.051321223 1.1500001
-0.067304738 -0.051231965 1.148
-0.065238774 -0.051187344 1.1470001
-0.063176289 -0.051142715 1.146
-0.061063942 -0.051053457 1.1440001
-0.059061844 -0.051053457 1.1440001
-0.056910116 -0.050919577 1.141
-0.054817017 -0.050830327 1.1390001
-0.052684534 -0.05069644 1.136
-0.05069644 -0.05069644 1.136
-0.048665471 -0.050651819 1.1350001
-0.046637997 -0.05060719 1.1340001
-0.044574648 -0.050517935 1.1320001
-0.042593554 -0.050517935 1.1320001
-0.04064833 -0.050562561 1.133
-0.038767867 -0.05069644 1.136
-0.036876902 -0.050830327 1.1390001
-0.034883555 -0.050830327 1.1390001
-0.032861333 -0.050785694 1.138
-0.030896863 -0.050830327 1.1390001
-0.028928893 -0.050874956 1.1400001
-0.027028302 -0.051053457 1.1440001
-0.025026206 -0.051053457 1.1440001
-0.023084488 -0.051187344 1.1470001
-0.021058764 -0.051142715 1.146
-0.019086419 -0.051231965 1.148
-0.017092198 -0.051276594 1.149
-0.015094478 -0.051321223 1.1500001
-0.013104632 -0.051410478 1.1520001
-0.011107785 -0.051499732 1.154
-0.0090960627 -0.051544361 1.1550001
-0.0070747165 -0.051544361 1.1550001
-0.0050621191 -0.051633611 1.1570001
-0.0030503969 -0.051856749 1.1620001
-0.0010202992 -0.052035253 1.166
0.0010237993 -0.052213769 1.1700001
0.0030871485 -0.052481528 1.176
0.0051802495 -0.052838545 1.184
0.0072952267 -0.053150937 1.1910001
0.0093874522 -0.053195558 1.192
0.011463927 -0.053150937 1.1910001
0.013559652 -0.053195558 1.192
0.015763884 -0.053597208 1.2010001
-0.090288602 -0.050852202 1.1860001
-0.087766729 -0.050594937 1.1800001
-0.085411109 -0.050423428 1.176
-0.083069503 -0.05025192 1.1720001
-0.080811016 -0.050123289 1.169
-0.07863041 -0.050037537 1.1670001
-0.076194294 -0.049780272 1.161
-0.073906936 -0.049608767 1.1570001
-0.07163357 -0.049437255 1.153
-0.06949497 -0.049351502 1.151
-0.067363366 -0.04926575 1.149
-0.065295644 -0.049222868 1.148
-0.063286543 -0.049222868 1.148
-0.061170693 -0.049137119 1.146
-0.059061844 -0.049051363 1.1440001
-0.056860238 -0.048879854 1.1400001
-0.054817017 -0.04883698 1.1390001
-0.052684534 -0.048708346 1.136
-0.050651819 -0.048665471 1.1350001
-0.048579715 -0.048579715 1.133
-0.046596866 -0.048579715 1.133
-0.044614021 -0.048579715 1.133
-0.042668805 -0.048622593 1.1340001
-0.040720087 -0.048665471 1.1350001
-0.038836118 -0.048794098 1.138
-0.036909278 -0.048879854 1.1400001
-0.034975436 -0.048965611 1.1420001
-0.033005714 -0.049008485 1.143
-0.031032493 -0.049051363 1.1440001
-0.029030399 -0.049051363 1.1440001
-0.027051929 -0.049094241 1.1450001
-0.025048083 -0.049094241 1.1450001
-0.023084488 -0.049179994 1.1470001
-0.021058764 -0.049137119 1.146
-0.019086419 -0.049222868 1.148
-0.017092198 -0.04926575 1.149
-0.015094478 -0.049308628 1.1500001
-0.013116007 -0.049437255 1.153
-0.011117411 -0.049523011 1.1550001
-0.009103938 -0.049565885 1.156
-0.0070808409 -0.049565885 1.156
-0.0050708689 -0.049694516 1.159
-0.0030530223 -0.049866032 1.1630001
-0.0010211742 -0.050037537 1.1670001
0.0010246743 -0.050209042 1.171
0.0030897737 -0.050466307 1.177
0.0051890002 -0.050852202 1.1860001
0.0073258532 -0.051280972 1.1960001
0.0094268294 -0.051323846 1.197
0.011540931 -0.051409598 1.199
0.01369616 -0.051623989 1.2040001
0.017910363 -0.051623989 1.2040001
-0.089907959 -0.048570964 1.1810001
-0.087617971 -0.048447587 1.1780001
-0.085338488 -0.048324201 1.1750001
-0.082927741 -0.048118569 1.1700001
-0.080603629 -0.04795406 1.166
-0.078360908 -0.047830679 1.1630001
-0.075997412 -0.047625046 1.1580001
-0.073651418 -0.047419406 1.153
-0.071447194 -0.047296029 1.1500001
-0.069313832 -0.047213774 1.148
-0.067246117 -0.047172651 1.1470001
-0.065181889 -0.047131516 1.146
-0.063176289 -0.047131516 1.146
-0.061063942 -0.047049265 1.1440001
-0.05885534 -0.04688476 1.1400001
-0.056710608 -0.046761379 1.1370001
-0.054672632 -0.046720251 1.136
-0.052545402 -0.046596866 1.133
-0.050517935 -0.046555743 1.1320001
-0.048451081 -0.046473488 1.13
-0.046473488 -0.046473488 1.13
-0.044495892 -0.046473488 1.13
-0.042555925 -0.046514615 1.131
-0.04064833 -0.046596866 1.133
-0.038699616 -0.046637997 1.1340001
-0.036747396 -0.046679124 1.1350001
-0.034822304 -0.046761379 1.1370001
-0.032947961 -0.046925887 1.141
-0.031005366 -0.047008138 1.143
-0.029005021 -0.047008138 1.143
-0.027004674 -0.047008138 1.143
-0.025004329 -0.047008138 1.143
-0.023044236 -0.047090396 1.1450001
-0.021040389 -0.047090396 1.1450001
-0.019036543 -0.047090396 1.1450001
-0.017062446 -0.047172651 1.1470001
-0.015068225 -0.047213774 1.148
-0.01308188 -0.047296029 1.1500001
-0.011078908 -0.047337152 1.151
-0.0090881875 -0.047460537 1.154
-0.0070747165 -0.047501665 1.1550001
-0.0050752442 -0.047707301 1.1600001
-0.0030503969 -0.047789551 1.1620001
-0.0010194242 -0.047912937 1.1650001
0.0010220492 -0.048036315 1.1680001
0.0030897737 -0.048406456 1.177
0.0051933755 -0.048817724 1.187
0.0094662057 -0.049434628 1.202
-0.092286319 -0.046661623 1.1850001
-0.089984089 -0.046543494 1.182
-0.087766729 -0.046464738 1.1800001
-0.085483737 -0.046346609 1.177
-0.083069503 -0.046149723 1.1720001
-0.080741897 -0.045992218 1.1680001
-0.078428276 -0.045834705 1.164
-0.076063037 -0.045637824 1.159
-0.073843054 -0.045519691 1.156
-0.071509317 -0.045322809 1.151
-0.069374219 -0.045244053 1.149
-0.067187488 -0.04512592 1.146
-0.065238774 -0.0451653 1.1470001
-0.063231416 -0.0451653 1.1470001
-0.061224073 -0.0451653 1.1470001
-0.059061844 -0.045047171 1.1440001
-0.056860238 -0.044889662 1.1400001
-0.054768886 -0.044810906 1.138
-0.052638166 -0.044692781 1.1350001
-0.050562561 -0.044614021 1.133
-0.048493963 -0.044535268 1.131
-0.046514615 -0.044535268 1.131
-0.044574648 -0.044574648 1.1320001
-0.042631179 -0.044614021 1.133
-0.040684212 -0.044653401 1.1340001
-0.038767867 -0.044732153 1.136
-0.036779772 -0.044732153 1.136
-0.034852929 -0.044810906 1.138
-0.032947961 -0.044929039 1.141
-0.031005366 -0.045007791 1.143
-0.029030399 -0.045047171 1.1440001
-0.027028302 -0.045047171 1.1440001
-0.025069958 -0.04512592 1.146
-0.02306436 -0.04512592 1.146
-0.021077141 -0.0451653 1.1470001
-0.019086419 -0.045204677 1.148
-0.017092198 -0.045244053 1.149
-0.015094478 -0.045283433 1.1500001
-0.013104632 -0.045362186 1.1520001
-0.011098159 -0.045401558 1.153
-0.0090960627 -0.045480315 1.1550001
-0.007093092 -0.045598447 1.1580001
-0.0050796196 -0.045716573 1.161
-0.0030556472 -0.045834705 1.164
-0.0010202992 -0.045913462 1.166
0.0010229242 -0.046031591 1.169
0.003095024 -0.046425361 1.179
0.0052065006 -0.046858508 1.1900001
-0.089755692 -0.044362012 1.179
-0.087543592 -0.044286758 1.177
-0.085338488 -0.044211503 1.1750001
-0.083069503 -0.044098627 1.1720001
-0.080603629 -0.043872863 1.166
-0.078158766 -0.043647103 1.1600001
-0.07593178 -0.043534223 1.1570001
-0.073715299 -0.043421339 1.154
-0.071509317 -0.043308459 1.151
-0.06925346 -0.043157954 1.1470001
-0.067011602 -0.043007448 1.143
-0.065011255 -0.043007448 1.143
-0.063010909 -0.043007448 1.143
-0.061063942 -0.043045074 1.1440001
-0.058958594 -0.042969819 1.1420001
-0.056860238 -0.042894568 1.1400001
-0.054672632 -0.042744059 1.136
-0.052545402 -0.042631179 1.133
-0.050473306 -0.042555925 1.131
-0.048493963 -0.042555925 1.131
-0.046514615 -0.042555925 1.131
-0.044495892 -0.042518295 1.13
-0.042518295 -0.042518295 1.13
-0.040540699 -0.042518295 1.13
-0.038631361 -0.042593554 1.1320001
-0.036715019 -0.042668805 1.1340001
-0.034791674 -0.042744059 1.136
-0.032861333 -0.042819314 1.138
-0.030923992 -0.042894568 1.1400001
-0.028954269 -0.04293219 1.141
-0.02698105 -0.042969819 1.1420001
-0.025004329 -0.043007448 1.143
-0.023003982 -0.043007448 1.143
-0.021058764 -0.043120325 1.146
-0.019069795 -0.043157954 1.1470001
-0.017077323 -0.043195579 1.148
-0.015081352 -0.043233208 1.149
-0.01308188 -0.043270838 1.1500001
-0.011088534 -0.043346088 1.1520001
-0.0090881875 -0.043421339 1.154
-0.007093092 -0.043571852 1.1580001
-0.0050839949 -0.043722358 1.1620001
-0.0030556472 -0.043797608 1.164
-0.0010194242 -0.043835238 1.1650001
0.0010220492 -0.043948118 1.1680001
0.0030923991 -0.044324387 1.1780001
-0.089907959 -0.04237042 1.1810001
-0.087617971 -0.042262789 1.1780001
-0.085411109 -0.042191029 1.176
-0.083069503 -0.042047527 1.1720001
-0.080603629 -0.041832265 1.166
-0.078158766 -0.041617006 1.1600001
-0.075997412 -0.041545253 1.1580001
-0.073843054 -0.041473497 1.156
-0.07163357 -0.041365866 1.153
-0.069374219 -0.04122236 1.149
-0.067187488 -0.041114729 1.146
-0.065068133 -0.041042976 1.1440001
-0.063010909 -0.041007098 1.143
-0.061063942 -0.041042976 1.1440001
-0.059010219 -0.041007098 1.143
-0.056910116 -0.040935345 1.141
-0.054768886 -0.040827714 1.138
-0.052730918 -0.040791843 1.1370001
-0.050651819 -0.040720087 1.1350001
-0.048665471 -0.040720087 1.1350001
-0.046637997 -0.040684212 1.1340001
-0.044614021 -0.04064833 1.133
-0.042593554 -0.040612455 1.1320001
-0.040612455 -0.040612455 1.1320001
-0.038665485 -0.04064833 1.133
-0.036779772 -0.040755961 1.136
-0.034883555 -0.040863592 1.1390001
-0.032919087 -0.040899474 1.1400001
-0.030951116 -0.040935345 1.141
-0.028979648 -0.040971223 1.1420001
-0.027004674 -0.041007098 1.143
-0.025004329 -0.041007098 1.143
-0.023003982 -0.041007098 1.143
-0.021040389 -0.041078854 1.1450001
-0.019086419 -0.041186482 1.148
-0.017107075 -0.041258242 1.1500001
-0.015107602 -0.041294113 1.151
-0.013104632 -0.041329991 1.1520001
-0.011117411 -0.041437622 1.1550001
-0.0091196895 -0.041545253 1.1580001
-0.007111467 -0.041652881 1.161
-0.0050927452 -0.041760512 1.164
-0.0030608973 -0.041832265 1.166
-0.0010220492 -0.041904021 1.1680001
0.0010264245 -0.042083401 1.1730001
-0.089984089 -0.040337693 1.182
-0.087617971 -0.040201191 1.1780001
-0.085338488 -0.040098809 1.1750001
-0.082927741 -0.039928176 1.1700001
-0.080465376 -0.039723411 1.164
-0.077956632 -0.039484527 1.1570001
-0.075800531 -0.039416272 1.1550001
-0.073523663 -0.039279766 1.151
-0.071385063 -0.039211512 1.149
-0.069132708 -0.03907501 1.1450001
-0.066952981 -0.038972627 1.1420001
-0.064840622 -0.038904376 1.1400001
-0.062790401 -0.038870245 1.1390001
-0.060743671 -0.038836118 1.138
-0.058648825 -0.038767867 1.136
-0.056511097 -0.038665485 1.133
-0.054480128 -0.038631361 1.1320001
-0.052499034 -0.038631361 1.1320001
-0.050562561 -0.038665485 1.133
-0.048665471 -0.038733743 1.1350001
-0.046637997 -0.038699616 1.1340001
-0.044574648 -0.038631361 1.1320001
-0.042518295 -0.038563106 1.13
-0.040576581 -0.038597234 1.131
-0.038631361 -0.038631361 1.1320001
-0.036715019 -0.038699616 1.1340001
-0.034761049 -0.038733743 1.1350001
-0.032832459 -0.038801994 1.1370001
-0.030869735 -0.038836118 1.138
-0.028928893 -0.038904376 1.1400001
-0.026957422 -0.0389385 1.141
-0.024960577 -0.0389385 1.141
-0.022983858 -0.038972627 1.1420001
