# .PCD v0.7 - Point Cloud Data file format
VERSION 0.7
FIELDS x y z
SIZE 4 4 4
TYPE F F F
COUNT 1 1 1
WIDTH 1422
HEIGHT 1
VIEWPOINT 0 0 0 1 0 0 0
POINTS 1422
DATA ascii
-0.046280976 -0.11085909 1.23
-0.044379514 -0.11149 1.2370001
-0.1245885 -0.11135787 1.2600001
-0.12170349 -0.11073921 1.253
-0.11912911 -0.11038569 1.2490001
-0.11666237 -0.11012056 1.2460001
-0.11402237 -0.10967866 1.2410001
-0.11130974 -0.10914838 1.235
-0.10861811 -0.10861811 1.2290001
-0.10612074 -0.10826459 1.225
-0.10372224 -0.10799944 1.222
-0.10158364 -0.10799944 1.222
-0.09952642 -0.10808783 1.223
-0.09738607 -0.10808783 1.223
-0.094856322 -0.10764594 1.2180001
-0.092572458 -0.10746918 1.2160001
-0.090369977 -0.10738079 1.215
-0.088316262 -0.10746918 1.2160001
-0.08625903 -0.10755755 1.217
-0.08392179 -0.10729243 1.2140001
-0.081864566 -0.10738079 1.215
-0.079606958 -0.10720404 1.2130001
-0.07754799 -0.10729243 1.2140001
-0.075361252 -0.10720404 1.2130001
-0.073178023 -0.10711566 1.212
-0.071115553 -0.10720404 1.2130001
-0.069049574 -0.10729243 1.2140001
-0.066924982 -0.10729243 1.2140001
-0.06485375 -0.10738079 1.215
-0.062675774 -0.10729243 1.2140001
-0.060501292 -0.10720404 1.2130001
-0.058330309 -0.10711566 1.212
-0.056255583 -0.10720404 1.2130001
-0.054177362 -0.10729243 1.2140001
-0.052181385 -0.10755755 1.217
-0.050174914 -0.10782269 1.22
-0.048079193 -0.10791107 1.2210001
-0.04605522 -0.10817622 1.2240001
-0.044020746 -0.10844135 1.2270001
-0.042146403 -0.10914838 1.235
-0.13340892 -0.10915276 1.2600001
-0.12739737 -0.10967252 1.266
-0.1245885 -0.10915276 1.2600001
-0.12160636 -0.10845973 1.2520001
-0.11931988 -0.1083731 1.251
-0.11684962 -0.10811321 1.248
-0.11429801 -0.10776669 1.2440001
-0.11130974 -0.10698702 1.235
-0.10870648 -0.10655388 1.23
-0.10620737 -0.10620737 1.2260001
-0.10372224 -0.10586084 1.222
-0.10150052 -0.10577422 1.2210001
-0.099363662 -0.10577422 1.2210001
-0.09738607 -0.10594748 1.223
-0.094856322 -0.10551433 1.2180001
-0.092496328 -0.10525444 1.215
-0.090295605 -0.10516782 1.2140001
-0.088243626 -0.10525444 1.215
-0.08625903 -0.1054277 1.217
-0.083990917 -0.10525444 1.215
-0.081864566 -0.10525444 1.215
-0.079606958 -0.10508119 1.2130001
-0.07754799 -0.10516782 1.2140001
-0.07542339 -0.10516782 1.2140001
-0.073298782 -0.10516782 1.2140001
-0.071174182 -0.10516782 1.2140001
-0.069106452 -0.10525444 1.215
-0.066980101 -0.10525444 1.215
-0.064960502 -0.1054277 1.217
-0.062779024 -0.10534108 1.2160001
-0.060601044 -0.10525444 1.215
-0.058426566 -0.10516782 1.2140001
-0.056209207 -0.10499455 1.212
-0.054088105 -0.10499455 1.212
-0.052095633 -0.10525444 1.215
-0.050174914 -0.10568759 1.22
-0.048118569 -0.10586084 1.222
-0.04605522 -0.10603411 1.2240001
-0.044020746 -0.10629401 1.2270001
-0.04211228 -0.1069004 1.2340001
-0.12981775 -0.10762668 1.268
-0.12769929 -0.10771156 1.2690001
-0.1245885 -0.10694765 1.2600001
-0.12189775 -0.10652326 1.2550001
-0.11951062 -0.10635349 1.253
-0.11713052 -0.10618374 1.251
-0.11383861 -0.10516519 1.2390001
-0.11094922 -0.10448616 1.2310001
-0.10835297 -0.10406176 1.2260001
-0.10594748 -0.10380712 1.223
-0.10346761 -0.10346761 1.2190001
-0.10116799 -0.10329785 1.217
-0.099119522 -0.10338273 1.2180001
-0.096987925 -0.10338273 1.2180001
-0.094622679 -0.10312809 1.215
-0.092191823 -0.10278858 1.2110001
-0.09014684 -0.10287345 1.212
-0.088025734 -0.10287345 1.212
-0.086046398 -0.10304322 1.2140001
-0.08392179 -0.10304322 1.2140001
-0.08179719 -0.10304322 1.2140001
-0.079606958 -0.10295833 1.2130001
-0.077484109 -0.10295833 1.2130001
-0.075299129 -0.10287345 1.212
-0.073178023 -0.10287345 1.212
-0.070998296 -0.10278858 1.2110001
-0.068992697 -0.10295833 1.2130001
-0.066869847 -0.10295833 1.2130001
-0.064746991 -0.10295833 1.2130001
-0.062572517 -0.10287345 1.212
-0.060451411 -0.10287345 1.212
-0.058474693 -0.10312809 1.215
-0.056209207 -0.10287345 1.212
-0.05399885 -0.1027037 1.21
-0.051924128 -0.10278858 1.2110001
-0.050051536 -0.10329785 1.217
-0.048000436 -0.10346761 1.2190001
-0.045979965 -0.10372224 1.222
-0.043877237 -0.10380712 1.223
-0.041907519 -0.10423152 1.228
-0.040017426 -0.10491055 1.2360001
-0.13193274 -0.10532445 1.2670001
-0.12992014 -0.10549071 1.2690001
-0.12779991 -0.10557384 1.2700001
-0.12488513 -0.10499193 1.263
-0.12209201 -0.10449316 1.2570001
-0.11979677 -0.10441003 1.256
-0.11684962 -0.103745 1.248
-0.11365485 -0.10283058 1.2370001
-0.11076896 -0.10216554 1.2290001
-0.10817622 -0.1017499 1.2240001
-0.10586084 -0.10158364 1.222
-0.10355249 -0.10141739 1.22
-0.10133426 -0.10133426 1.2190001
-0.099119522 -0.10125113 1.2180001
-0.096669406 -0.10091861 1.2140001
-0.09431117 -0.10066923 1.2110001
-0.092191823 -0.10066923 1.2110001
-0.09014684 -0.10075235 1.212
-0.088025734 -0.10075235 1.212
-0.085904635 -0.10075235 1.212
-0.08378353 -0.10075235 1.212
-0.081662431 -0.10075235 1.212
-0.079606958 -0.10083549 1.2130001
-0.077484109 -0.10083549 1.2130001
-0.075361252 -0.10083549 1.2130001
-0.073359154 -0.10100174 1.215
-0.071056925 -0.10075235 1.212
-0.069163337 -0.10108487 1.2160001
-0.067035228 -0.10108487 1.2160001
-0.064960502 -0.10116799 1.217
-0.062779024 -0.10108487 1.2160001
-0.060650922 -0.10108487 1.2160001
-0.058619075 -0.10125113 1.2180001
-0.056394719 -0.10108487 1.2160001
-0.054266613 -0.10108487 1.2160001
-0.052095633 -0.10100174 1.215
-0.050133791 -0.10133426 1.2190001
-0.048000436 -0.10133426 1.2190001
-0.045942336 -0.10150052 1.2210001
-0.043877237 -0.10166677 1.223
-0.041941646 -0.10216554 1.2290001
-0.03998505 -0.10266432 1.235
-0.1340442 -0.10302571 1.266
-0.1315162 -0.10278157 1.263
-0.12971538 -0.10310709 1.2670001
-0.12759864 -0.10318847 1.268
-0.12478626 -0.1027002 1.2620001
-0.12209201 -0.10229331 1.2570001
-0.11941526 -0.10188641 1.2520001
-0.11638148 -0.10115399 1.243
-0.11319546 -0.10025883 1.2320001
-0.11058871 -0.099851936 1.2270001
-0.10808783 -0.09952642 1.223
-0.10577422 -0.099363662 1.2210001
-0.10346761 -0.099200912 1.2190001
-0.10108487 -0.098956764 1.2160001
-0.098712631 -0.098712631 1.2130001
-0.096111998 -0.098224349 1.207
-0.093921773 -0.098142974 1.2060001
-0.091963433 -0.098305739 1.2080001
-0.090072468 -0.098549873 1.2110001
-0.087880477 -0.098468497 1.21
-0.085692003 -0.098387122 1.2090001
-0.083576158 -0.098387122 1.2090001
-0.081460305 -0.098387122 1.2090001
-0.079344451 -0.098387122 1.2090001
-0.077356353 -0.098549873 1.2110001
-0.075236998 -0.098549873 1.2110001
-0.073178023 -0.098631248 1.212
-0.07093966 -0.098468497 1.21
-0.069049574 -0.098794013 1.2140001
-0.066869847 -0.098712631 1.2130001
-0.06485375 -0.098875389 1.215
-0.062624142 -0.098712631 1.2130001
-0.060451411 -0.098631248 1.212
-0.058282182 -0.098549873 1.2110001
-0.056070078 -0.098387122 1.2090001
-0.054088105 -0.098631248 1.212
-0.051967002 -0.098631248 1.212
-0.050010409 -0.098956764 1.2160001
-0.04792168 -0.099038139 1.217
-0.045867085 -0.099200912 1.2190001
-0.043769605 -0.09928228 1.22
-0.041771013 -0.099607803 1.2240001
-0.039823167 -0.10009607 1.23
-0.1365827 -0.10104899 1.2690001
-0.13362069 -0.1004916 1.2620001
-0.13141209 -0.1004916 1.2620001
-0.12920347 -0.1004916 1.2620001
-0.12629047 -0.099934191 1.2550001
-0.12369858 -0.099615671 1.251
-0.12121783 -0.099376783 1.248
-0.11874759 -0.099137895 1.245
-0.11600697 -0.098660134 1.2390001
-0.11328734 -0.09818235 1.233
-0.11058871 -0.097704589 1.2270001
-0.10817622 -0.097465701 1.2240001
-0.10594748 -0.09738607 1.223
-0.10355249 -0.097147182 1.22
-0.10125113 -0.096987925 1.2180001
-0.098875389 -0.09674903 1.215
-0.096510142 -0.096510142 1.212
-0.094155416 -0.096271269 1.2090001
-0.091963433 -0.096191637 1.2080001
-0.08992371 -0.096271269 1.2090001
-0.087880477 -0.096350886 1.21
-0.085762881 -0.096350886 1.21
-0.083645277 -0.096350886 1.21
-0.081392922 -0.096191637 1.2080001
-0.079410069 -0.096350886 1.21
-0.077228598 -0.096271269 1.2090001
-0.075050615 -0.096191637 1.2080001
-0.072936513 -0.096191637 1.2080001
-0.07082241 -0.096191637 1.2080001
-0.069049574 -0.096669406 1.2140001
-0.066924982 -0.096669406 1.2140001
-0.064907126 -0.096828662 1.2160001
-0.062675774 -0.096669406 1.2140001
-0.06040154 -0.096430518 1.2110001
-0.058185928 -0.096271269 1.2090001
-0.056116454 -0.096350886 1.21
-0.054088105 -0.096510142 1.212
-0.052052759 -0.096669406 1.2140001
-0.050051536 -0.096908294 1.217
-0.04796106 -0.096987925 1.2180001
-0.045942336 -0.097226813 1.2210001
-0.043877237 -0.09738607 1.223
-0.041873395 -0.097704589 1.2270001
-0.039887924 -0.098102726 1.2320001
-0.13625981 -0.098594502 1.266
-0.13362069 -0.098282985 1.2620001
-0.13099556 -0.097971462 1.258
-0.12848681 -0.097737834 1.2550001
-0.12518354 -0.096881166 1.2440001
-0.1231053 -0.09695904 1.245
-0.12073219 -0.096803285 1.243
-0.11788917 -0.096258134 1.2360001
-0.11535156 -0.095946625 1.2320001
-0.11273605 -0.095557235 1.2270001
-0.11031832 -0.0953236 1.2240001
-0.10782269 -0.095012076 1.22
-0.1054277 -0.094778441 1.217
-0.10295833 -0.094466932 1.2130001
-0.10075235 -0.094389044 1.212
-0.098549873 -0.09431117 1.2110001
-0.096350886 -0.094233289 1.21
-0.093999654 -0.093999654 1.207
-0.091735043 -0.093843892 1.205
-0.089700572 -0.093921773 1.2060001
-0.087662593 -0.093999654 1.207
-0.085621126 -0.094077535 1.2080001
-0.083507024 -0.094077535 1.2080001
-0.081392922 -0.094077535 1.2080001
-0.079147562 -0.093921773 1.2060001
-0.076589808 -0.093376614 1.199
-0.073994443 -0.092753597 1.1910001
-0.071668573 -0.09244208 1.187
-0.06976711 -0.092675716 1.1900001
-0.068310164 -0.093532383 1.2010001
-0.06664934 -0.094155416 1.2090001
-0.064640239 -0.09431117 1.2110001
-0.062366005 -0.094077535 1.2080001
-0.060152147 -0.093921773 1.2060001
-0.057993416 -0.093843892 1.205
-0.055884566 -0.093843892 1.205
-0.053909596 -0.094077535 1.2080001
-0.051838376 -0.094155416 1.2090001
-0.0498459 -0.094389044 1.212
-0.047842931 -0.094622679 1.215
-0.045829456 -0.094856322 1.2180001
-0.043805487 -0.095089957 1.2210001
-0.041771013 -0.0953236 1.2240001
-0.039758414 -0.095635109 1.228
-0.13647507 -0.096531145 1.268
-0.13340892 -0.095922127 1.2600001
-0.13120383 -0.095922127 1.2600001
-0.1285892 -0.095617607 1.256
-0.12568668 -0.095084712 1.2490001
-0.12251203 -0.094323419 1.2390001
-0.12024654 -0.094247289 1.238
-0.11722153 -0.093562134 1.2290001
-0.11460253 -0.093181491 1.2240001
-0.1120929 -0.092876971 1.22
-0.10986767 -0.092800848 1.2190001
-0.10746918 -0.092572458 1.2160001
-0.10508119 -0.092344075 1.2130001
-0.10278858 -0.092191823 1.2110001
-0.10075235 -0.092267938 1.212
-0.098631248 -0.092267938 1.212
-0.096350886 -0.092115685 1.21
-0.093921773 -0.091811173 1.2060001
-0.091735043 -0.091735043 1.205
-0.089626193 -0.091735043 1.205
-0.087662593 -0.091887303 1.207
-0.085479371 -0.091811173 1.2060001
-0.083368771 -0.091811173 1.2060001
-0.081056029 -0.091582783 1.2030001
-0.07855691 -0.09112601 1.197
-0.075759403 -0.090288602 1.1860001
-0.0732489 -0.089755692 1.179
-0.0710648 -0.089603439 1.177
-0.069180831 -0.089831829 1.1800001
-0.067570761 -0.090440862 1.1880001
-0.066098057 -0.09127827 1.199
-0.064319976 -0.091735043 1.205
-0.062262751 -0.091811173 1.2060001
-0.060152147 -0.091811173 1.2060001
-0.058041546 -0.091811173 1.2060001
-0.055977318 -0.091887303 1.207
-0.053909596 -0.091963433 1.2080001
-0.051881246 -0.092115685 1.21
-0.049804773 -0.092191823 1.2110001
-0.047803555 -0.092420205 1.2140001
-0.045754205 -0.092572458 1.2160001
-0.043769605 -0.092876971 1.22
-0.041736886 -0.093105353 1.223
-0.039693665 -0.093333744 1.2260001
-0.037670564 -0.093638256 1.23
-0.13647507 -0.094312035 1.268
-0.13383244 -0.094014525 1.2640001
-0.1310997 -0.093642637 1.2590001
-0.12848681 -0.093345128 1.2550001
-0.12588795 -0.093047611 1.251
-0.12251203 -0.092155069 1.2390001
-0.11966377 -0.091634415 1.2320001
-0.11664925 -0.090965003 1.223
-0.11413438 -0.090667494 1.2190001
-0.11172538 -0.090444356 1.2160001
-0.10950715 -0.090369977 1.215
-0.10711566 -0.09014684 1.212
-0.10473467 -0.08992371 1.2090001
-0.10253394 -0.08984933 1.2080001
-0.10041984 -0.08984933 1.2080001
-0.098224349 -0.089774944 1.207
-0.095873125 -0.089551821 1.2040001
-0.093532383 -0.089328676 1.2010001
-0.09143053 -0.089328676 1.2010001
-0.089403048 -0.089403048 1.202
-0.087372087 -0.089477435 1.2030001
-0.085124977 -0.089328676 1.2010001
-0.08274661 -0.08903116 1.197
-0.080247492 -0.088584892 1.1910001
-0.077572487 -0.08791548 1.182
-0.075120613 -0.087469205 1.176
-0.072689757 -0.087022945 1.1700001
-0.070642151 -0.087022945 1.1700001
-0.068653181 -0.087097317 1.171
-0.066945098 -0.087543592 1.177
-0.065271147 -0.088064238 1.184
-0.063626066 -0.088659264 1.192
-0.061798099 -0.08903116 1.197
-0.059803005 -0.089179918 1.199
-0.057800915 -0.089328676 1.2010001
-0.055699058 -0.089328676 1.2010001
-0.053641833 -0.089403048 1.202
-0.051623989 -0.089551821 1.2040001
-0.049558014 -0.089626193 1.205
-0.047606673 -0.08992371 1.2090001
-0.045566071 -0.090072468 1.2110001
-0.043554351 -0.090295605 1.2140001
-0.041463871 -0.090369977 1.215
-0.039467029 -0.090667494 1.2190001
-0.037425552 -0.090890624 1.222
-0.13669033 -0.092238195 1.2700001
-0.13393834 -0.091875054 1.2650001
-0.1310997 -0.091439277 1.2590001
-0.12838443 -0.091076143 1.2540001
-0.1257873 -0.090785623 1.25
-0.11927524 -0.089187793 1.228
-0.11655386 -0.088752024 1.222
-0.11404074 -0.088461511 1.2180001
-0.1116335 -0.088243626 1.215
-0.10932689 -0.08809837 1.2130001
-0.10711566 -0.088025734 1.212
-0.10473467 -0.087807857 1.2090001
-0.10261882 -0.087807857 1.2090001
-0.10050297 -0.087807857 1.2090001
-0.098224349 -0.087662593 1.207
-0.095793493 -0.087372087 1.2030001
-0.093454503 -0.087154202 1.2
-0.09127827 -0.087081566 1.199
-0.089254305 -0.087154202 1.2
-0.08722683 -0.08722683 1.2010001
-0.084912345 -0.087008946 1.1980001
-0.082400963 -0.086573169 1.192
-0.07977584 -0.085992143 1.184
-0.077375598 -0.085629001 1.179
-0.075056739 -0.085338488 1.1750001
-0.072751872 -0.085047968 1.171
-0.07070253 -0.085047968 1.171
-0.06871181 -0.085120596 1.1720001
-0.066888221 -0.085411109 1.176
-0.064940378 -0.085556373 1.1780001
-0.063252419 -0.086064771 1.1850001
-0.061539963 -0.086573169 1.192
-0.059703253 -0.08693631 1.197
-0.057752781 -0.087154202 1.2
-0.055652682 -0.087154202 1.2
-0.053641833 -0.087299451 1.202
-0.051581111 -0.087372087 1.2030001
-0.049516886 -0.087444715 1.2040001
-0.047527913 -0.087662593 1.207
-0.045490816 -0.087807857 1.2090001
-0.043410841 -0.087880477 1.21
-0.041361492 -0.088025734 1.212
-0.039272767 -0.08809837 1.2130001
-0.03727242 -0.088388883 1.217
-0.035431333 -0.089115173 1.2270001
-0.13383244 -0.089590311 1.2640001
-0.1310997 -0.089235924 1.2590001
-0.1280773 -0.08866889 1.251
-0.12528415 -0.088243626 1.245
-0.11888673 -0.086755179 1.2240001
-0.11617235 -0.086329907 1.2180001
-0.11366623 -0.086046398 1.2140001
-0.11126599 -0.085833758 1.2110001
-0.10896637 -0.085692003 1.2090001
-0.10676214 -0.085621126 1.2080001
-0.10438816 -0.085408486 1.205
-0.10219443 -0.085337617 1.2040001
-0.10000419 -0.085266739 1.2030001
-0.097817458 -0.085195847 1.202
-0.095395349 -0.084912345 1.1980001
-0.093220867 -0.08484146 1.197
-0.09089762 -0.08462882 1.194
-0.088882409 -0.084699705 1.1950001
-0.086791053 -0.084699705 1.1950001
-0.08455795 -0.08455795 1.1930001
-0.081986204 -0.084061801 1.1860001
-0.079573713 -0.083707415 1.1810001
-0.07744123 -0.08363653 1.1800001
-0.075184494 -0.083423898 1.177
-0.072689757 -0.082927741 1.1700001
-0.070642151 -0.082927741 1.1700001
-0.06871181 -0.083069503 1.1720001
-0.066945098 -0.083423898 1.177
-0.064830117 -0.083353005 1.176
-0.062932156 -0.083565645 1.179
-0.061126944 -0.083920039 1.184
-0.059403993 -0.084416196 1.1910001
-0.057464015 -0.08462882 1.194
-0.055420794 -0.084699705 1.1950001
-0.053463325 -0.084912345 1.1980001
-0.051366724 -0.084912345 1.1980001
-0.049393509 -0.085124977 1.2010001
-0.047291655 -0.085124977 1.2010001
-0.045265056 -0.085266739 1.2030001
-0.043195583 -0.085337617 1.2040001
-0.041122608 -0.085408486 1.205
-0.039110884 -0.085621126 1.2080001
-0.037088662 -0.085833758 1.2110001
-0.035258073 -0.086542547 1.2210001
-0.13615219 -0.087447338 1.2650001
-0.13393834 -0.087447338 1.2650001
-0.13130794 -0.087170824 1.261
-0.1285892 -0.086825185 1.256
-0.12558605 -0.086272158 1.248
-0.11917812 -0.084820464 1.2270001
-0.11626773 -0.084267437 1.2190001
-0.11347897 -0.08378353 1.212
-0.11108223 -0.083576158 1.2090001
-0.10887624 -0.083507024 1.2080001
-0.10667376 -0.083437897 1.207
-0.10438816 -0.083299637 1.205
-0.10210954 -0.083161376 1.2030001
-0.099921063 -0.08309225 1.202
-0.097736083 -0.083023123 1.2010001
-0.095395349 -0.082815744 1.1980001
-0.093142986 -0.082677484 1.1960001
-0.090821505 -0.082470104 1.1930001
-0.088808022 -0.082539223 1.194
-0.086718418 -0.082539223 1.194
-0.084345318 -0.08226271 1.1900001
-0.081778817 -0.081778817 1.1830001
-0.079573713 -0.081640564 1.1810001
-0.077703744 -0.081847943 1.184
-0.075440012 -0.081640564 1.1810001
-0.072876133 -0.081087537 1.1730001
-0.070823289 -0.081087537 1.1730001
-0.068946317 -0.081294909 1.176
-0.067286365 -0.081778817 1.1830001
-0.064995505 -0.081502296 1.179
-0.062932156 -0.081502296 1.179
-0.061075319 -0.081778817 1.1830001
-0.05930423 -0.082193583 1.189
-0.057415891 -0.082470104 1.1930001
-0.055374417 -0.082539223 1.194
-0.053418696 -0.08274661 1.197
-0.051323846 -0.08274661 1.197
-0.04931125 -0.082884863 1.199
-0.047212899 -0.082884863 1.199
-0.045189805 -0.083023123 1.2010001
-0.043123826 -0.08309225 1.202
-0.041088481 -0.083230518 1.2040001
-0.039046131 -0.083368771 1.2060001
-0.037027407 -0.083576158 1.2090001
-0.035142567 -0.08412917 1.217
-0.13550641 -0.084829211 1.2590001
-0.13287953 -0.084559701 1.2550001
-0.13120383 -0.084896594 1.2600001
-0.12869158 -0.08469446 1.2570001
-0.12548542 -0.084020674 1.2470001
-0.11888673 -0.082470976 1.2240001
-0.11617235 -0.0820667 1.2180001
-0.11338534 -0.081595063 1.2110001
-0.11099035 -0.081392922 1.2080001
-0.10860585 -0.081190787 1.205
-0.10632025 -0.081056029 1.2030001
-0.10404164 -0.080921277 1.2010001
-0.10177002 -0.080786511 1.199
-0.099505417 -0.080651753 1.197
-0.097329192 -0.080584385 1.1960001
-0.095076822 -0.080449626 1.194
-0.092909351 -0.08038225 1.1930001
-0.090593114 -0.080180116 1.1900001
-0.088510513 -0.080180116 1.1900001
-0.086355284 -0.080112733 1.189
-0.084061801 -0.079910599 1.1860001
-0.081640564 -0.079573713 1.1810001
-0.079438955 -0.079438955 1.179
-0.07744123 -0.07950633 1.1800001
-0.075248376 -0.079371579 1.1780001
-0.07281401 -0.078967303 1.1720001
-0.070823289 -0.079034686 1.1730001
-0.068887696 -0.079169437 1.1750001
-0.067172617 -0.079573713 1.1810001
-0.064940378 -0.079371579 1.1780001
-0.062878788 -0.079371579 1.1780001
-0.060920436 -0.07950633 1.1800001
-0.05905484 -0.07977584 1.184
-0.057175256 -0.080045357 1.1880001
-0.055142529 -0.080112733 1.189
-0.053106308 -0.080180116 1.1900001
-0.051023707 -0.080180116 1.1900001
-0.049064487 -0.08038225 1.1930001
-0.04705539 -0.080517009 1.1950001
-0.045039292 -0.080651753 1.197
-0.043016195 -0.080786511 1.199
-0.040986102 -0.080921277 1.2010001
-0.039046131 -0.08125817 1.2060001
-0.037058037 -0.08152768 1.21
-0.035084814 -0.081864566 1.215
-0.033066969 -0.082134083 1.2190001
-0.1307873 -0.082428969 1.256
-0.12879395 -0.082560219 1.258
-0.11888673 -0.080328874 1.2240001
-0.11626773 -0.080000736 1.2190001
-0.11357259 -0.079606958 1.2130001
-0.11099035 -0.079278819 1.2080001
-0.10851573 -0.079016313 1.2040001
-0.10623186 -0.078885049 1.202
-0.10412826 -0.078885049 1.202
-0.10185491 -0.078753792 1.2
-0.099671669 -0.078688167 1.199
-0.097329192 -0.078491278 1.1960001
-0.095156454 -0.078425653 1.1950001
-0.092909351 -0.078294396 1.1930001
-0.090593114 -0.078097515 1.1900001
-0.088436134 -0.078031883 1.189
-0.086282656 -0.077966258 1.1880001
-0.084132679 -0.077900626 1.187
-0.08170969 -0.077572487 1.182
-0.079438955 -0.077375598 1.179
-0.077178709 -0.077178709 1.176
-0.074992865 -0.07704746 1.174
-0.07281401 -0.076916203 1.1720001
-0.070883662 -0.07704746 1.174
-0.068946317 -0.077178709 1.176
-0.067058854 -0.077375598 1.179
-0.065050632 -0.07744123 1.1800001
-0.063038915 -0.077506863 1.1810001
-0.061126944 -0.077703744 1.184
-0.059104726 -0.077769376 1.1850001
-0.057223383 -0.078031883 1.189
-0.055096157 -0.077966258 1.1880001
-0.053061679 -0.078031883 1.189
-0.050980829 -0.078031883 1.189
-0.04902336 -0.078228764 1.192
-0.047016013 -0.078360021 1.194
-0.045039292 -0.07855691 1.197
-0.043016195 -0.078688167 1.199
-0.041020226 -0.078885049 1.202
-0.039078508 -0.079213187 1.207
-0.037119288 -0.079541326 1.212
-0.035113692 -0.079803847 1.2160001
-0.033039842 -0.079935104 1.2180001
-0.11859534 -0.077995129 1.2210001
-0.11607696 -0.077739619 1.217
-0.11347897 -0.077420227 1.212
-0.11099035 -0.077164717 1.2080001
-0.10842559 -0.076845333 1.2030001
-0.10596672 -0.076589808 1.199
-0.10386837 -0.076589808 1.199
-0.10160027 -0.07646206 1.197
-0.099339157 -0.076334298 1.1950001
-0.097003669 -0.076142661 1.192
-0.094758317 -0.076014914 1.1900001
-0.092597827 -0.075951025 1.189
-0.090364724 -0.075823277 1.187
-0.088213004 -0.075759403 1.1860001
-0.085992143 -0.075631641 1.184
-0.083849162 -0.075567767 1.1830001
-0.081502296 -0.075312249 1.179
-0.079169437 -0.075056739 1.1750001
-0.076850571 -0.074801229 1.171
-0.074673474 -0.074673474 1.169
-0.072565503 -0.0746096 1.1680001
-0.070581771 -0.074673474 1.169
-0.06859456 -0.074737348 1.1700001
-0.06666071 -0.07486511 1.1720001
-0.06477499 -0.075056739 1.1750001
-0.062825404 -0.075184494 1.177
-0.060868807 -0.075312249 1.179
-0.058855332 -0.075376131 1.1800001
-0.056982744 -0.075631641 1.184
-0.054957025 -0.075695522 1.1850001
-0.0529278 -0.075759403 1.1860001
-0.050852202 -0.075759403 1.1860001
-0.048858855 -0.075887159 1.1880001
-0.046858508 -0.076014914 1.1900001
-0.044888787 -0.07620655 1.1930001
-0.04287269 -0.076334298 1.1950001
-0.040917847 -0.076589808 1.199
-0.038981378 -0.076909207 1.2040001
-0.037058037 -0.077292472 1.21
-0.034998186 -0.077420227 1.212
-0.032904208 -0.077484109 1.2130001
-0.030857489 -0.077675745 1.2160001
-0.1187896 -0.075982533 1.223
-0.11617235 -0.075671896 1.2180001
-0.11347897 -0.075299129 1.212
-0.11089846 -0.074988484 1.207
-0.10842559 -0.07473997 1.2030001
-0.10587835 -0.074429341 1.1980001
-0.10369512 -0.074367203 1.197
-0.10151539 -0.07430508 1.1960001
-0.099339157 -0.074242949 1.1950001
-0.097003669 -0.074056566 1.192
-0.094678678 -0.073870182 1.189
-0.092519961 -0.073808059 1.1880001
-0.090364724 -0.073745921 1.187
-0.088287376 -0.073745921 1.187
-0.085846886 -0.073435292 1.182
-0.08363653 -0.073311031 1.1800001
-0.081156656 -0.072938263 1.174
-0.07889992 -0.072751872 1.171
-0.076653697 -0.072565503 1.1680001
-0.074545711 -0.072503366 1.1670001
-0.072503366 -0.072503366 1.1670001
-0.07040064 -0.072441243 1.166
-0.068418667 -0.072503366 1.1670001
-0.066490076 -0.072627619 1.169
-0.064554483 -0.072751872 1.171
-0.062665261 -0.072938263 1.174
-0.060817182 -0.073186778 1.1780001
-0.058855332 -0.073311031 1.1800001
-0.056934617 -0.073497415 1.1830001
-0.055003401 -0.073683806 1.1860001
-0.053017057 -0.073808059 1.1880001
-0.050937958 -0.073808059 1.1880001
-0.048899978 -0.073870182 1.189
-0.046897888 -0.073994443 1.1910001
-0.044926412 -0.074180819 1.194
-0.042944442 -0.074367203 1.197
-0.040951975 -0.074553594 1.2
-0.038981378 -0.074802108 1.2040001
-0.036966152 -0.074988484 1.207
-0.034969307 -0.075236998 1.2110001
-0.032958463 -0.075485505 1.215
-0.11859534 -0.073721431 1.2210001
-0.1158862 -0.073359154 1.215
-0.11319808 -0.072996892 1.2090001
-0.1107147 -0.072755381 1.205
-0.10824534 -0.072513871 1.2010001
-0.10578997 -0.072272353 1.197
-0.10343523 -0.072091222 1.194
-0.10134563 -0.072091222 1.194
-0.099089772 -0.071970463 1.192
-0.096840918 -0.071849711 1.1900001
-0.094360173 -0.071547821 1.1850001
-0.092208438 -0.071487442 1.184
-0.089984089 -0.07136669 1.182
-0.087766729 -0.071245931 1.1800001
-0.085411109 -0.071004413 1.176
-0.083069503 -0.07076291 1.1720001
-0.080741897 -0.070521399 1.1680001
-0.078495659 -0.070340261 1.1650001
-0.076391175 -0.070279881 1.164
-0.074290209 -0.070219509 1.1630001
-0.072192729 -0.07015913 1.1620001
-0.07009875 -0.07009875 1.161
-0.068125531 -0.07015913 1.1620001
-0.066148818 -0.070219509 1.1630001
-0.064223722 -0.070340261 1.1650001
-0.062345009 -0.070521399 1.1680001
-0.06045578 -0.07070253 1.171
-0.058556069 -0.070883662 1.174
-0.056645852 -0.0710648 1.177
-0.054725137 -0.071245931 1.1800001
-0.05279392 -0.07142707 1.1830001
-0.050766442 -0.071487442 1.184
-0.048776601 -0.071608201 1.1860001
-0.046779756 -0.07172896 1.1880001
-0.044851158 -0.071970463 1.192
-0.04287269 -0.072151601 1.1950001
-0.04088372 -0.072332732 1.1980001
-0.038851872 -0.072453491 1.2
-0.036874276 -0.072695009 1.2040001
-0.03488268 -0.072936513 1.2080001
-0.03284996 -0.073117651 1.2110001
-0.030882861 -0.073479913 1.217
-0.1187896 -0.071701825 1.223
-0.11607696 -0.07135006 1.217
-0.11338534 -0.070998296 1.2110001
-0.1107147 -0.070646524 1.205
-0.10824534 -0.070412017 1.2010001
-0.10587835 -0.070236139 1.1980001
-0.10360849 -0.070118874 1.1960001
-0.10143051 -0.070060246 1.1950001
-0.099172905 -0.069942996 1.1930001
-0.096840918 -0.06976711 1.1900001
-0.094439805 -0.069532603 1.1860001
-0.092052683 -0.069298089 1.182
-0.089831829 -0.069180831 1.1800001
-0.087469205 -0.068946317 1.176
-0.085193232 -0.068770438 1.1730001
-0.082856864 -0.068535931 1.169
-0.080672756 -0.068418667 1.1670001
-0.078563027 -0.068360038 1.166
-0.076588064 -0.068418667 1.1670001
-0.074354075 -0.068242781 1.164
-0.072254859 -0.06818416 1.1630001
-0.07015913 -0.068125531 1.1620001
-0.068242781 -0.068242781 1.164
-0.066262566 -0.068301417 1.1650001
-0.064278841 -0.068360038 1.166
-0.062345009 -0.068477303 1.1680001
-0.06045578 -0.068653181 1.171
-0.058456313 -0.06871181 1.1720001
-0.056453347 -0.068770438 1.1730001
-0.054493252 -0.068887696 1.1750001
-0.052615408 -0.069122203 1.179
-0.050723568 -0.069356717 1.1830001
-0.048776601 -0.069532603 1.1860001
-0.046779756 -0.06964986 1.1880001
-0.044888787 -0.069942996 1.1930001
-0.042908568 -0.070118874 1.1960001
-0.040917847 -0.07029476 1.199
-0.038916621 -0.070470646 1.202
-0.036904905 -0.070646524 1.205
-0.034911558 -0.070881039 1.2090001
-0.032931339 -0.071174182 1.2140001
-0.11579083 -0.069049574 1.2140001
-0.11319808 -0.068765193 1.2090001
-0.11043906 -0.068367042 1.202
-0.10806508 -0.068196408 1.199
-0.10578997 -0.068082653 1.197
-0.10343523 -0.06791202 1.194
-0.10117587 -0.067798264 1.192
-0.098923512 -0.067684516 1.1900001
-0.09667816 -0.067570761 1.1880001
-0.094280541 -0.067343242 1.184
-0.09181904 -0.067058854 1.179
-0.089451186 -0.06683135 1.1750001
-0.087097317 -0.066603832 1.171
-0.084975347 -0.066546954 1.1700001
-0.082715109 -0.066376321 1.1670001
-0.080741897 -0.066433199 1.1680001
-0.07863041 -0.066376321 1.1670001
-0.076588064 -0.066376321 1.1670001
-0.074354075 -0.066205688 1.164
-0.072192729 -0.06609194 1.1620001
-0.07015913 -0.06609194 1.1620001
-0.068301417 -0.066262566 1.1650001
-0.066319443 -0.066319443 1.166
-0.064333975 -0.066376321 1.1670001
-0.062291626 -0.066376321 1.1670001
-0.060300905 -0.066433199 1.1680001
-0.058206931 -0.066376321 1.1670001
-0.056164581 -0.066376321 1.1670001
-0.054214984 -0.066490076 1.169
-0.05239227 -0.066774465 1.174
-0.050509185 -0.067001984 1.1780001
-0.048653223 -0.067286365 1.1830001
-0.046661623 -0.06740012 1.1850001
-0.044738278 -0.067627631 1.189
-0.042765059 -0.067798264 1.192
-0.040815469 -0.068025775 1.1960001
-0.038884249 -0.068310164 1.2010001
-0.03684365 -0.068423927 1.2030001
-0.03482493 -0.06859456 1.2060001
-0.03284996 -0.068878941 1.2110001
-0.11607696 -0.067090355 1.217
-0.1132917 -0.066704459 1.21
-0.11043906 -0.066263437 1.202
-0.10806508 -0.066098057 1.199
-0.10578997 -0.065987803 1.197
-0.10352186 -0.065877549 1.1950001
-0.101091 -0.065657042 1.1910001
-0.098840386 -0.065546781 1.189
-0.096515402 -0.065381408 1.1860001
-0.094280541 -0.065271147 1.184
-0.09181904 -0.064995505 1.179
-0.089451186 -0.06477499 1.1750001
-0.087171696 -0.064609617 1.1720001
-0.085120596 -0.064609617 1.1720001
-0.082998618 -0.064554483 1.171
-0.08088015 -0.064499363 1.1700001
-0.078832544 -0.064499363 1.1700001
-0.076719321 -0.064444229 1.169
-0.074545711 -0.064333975 1.1670001
-0.072379112 -0.064223722 1.1650001
-0.070340261 -0.064223722 1.1650001
-0.068360038 -0.064278841 1.166
-0.066433199 -0.064389102 1.1680001
-0.064333975 -0.064333975 1.1670001
-0.062291626 -0.064333975 1.1670001
-0.06035253 -0.064444229 1.169
-0.058306683 -0.064444229 1.169
-0.056212708 -0.064389102 1.1680001
-0.054168612 -0.064389102 1.1680001
-0.052347649 -0.064664744 1.1730001
-0.050423428 -0.064830117 1.176
-0.048529837 -0.065050632 1.1800001
-0.04658287 -0.06521602 1.1830001
-0.044700652 -0.065491654 1.1880001
-0.042765059 -0.065712161 1.192
-0.04088372 -0.066042937 1.1980001
-0.038949002 -0.066318572 1.2030001
-0.036904905 -0.066428825 1.205
-0.034853805 -0.066539079 1.207
-0.032958463 -0.066980101 1.215
-0.11607696 -0.064960502 1.217
-0.11310446 -0.064480104 1.2080001
-0.11016342 -0.063999705 1.199
-0.10779469 -0.063839577 1.1960001
-0.10552483 -0.063732818 1.194
-0.10334861 -0.063679442 1.1930001
-0.10092123 -0.063465931 1.189
-0.098591007 -0.063305803 1.1860001
-0.096271262 -0.063145667 1.1830001
-0.093962029 -0.062985532 1.1800001
-0.091585405 -0.062772021 1.176
-0.089298934 -0.062611893 1.1730001
-0.087246083 -0.062611893 1.1730001
-0.085047968 -0.062505133 1.171
-0.082785994 -0.062345009 1.1680001
-0.080534503 -0.06218487 1.1650001
-0.078428276 -0.062131494 1.164
-0.076325551 -0.062078118 1.1630001
-0.074162446 -0.061971355 1.161
-0.072006345 -0.061864607 1.159
-0.070038378 -0.061917983 1.1600001
-0.068066902 -0.061971355 1.161
-0.066035055 -0.061971355 1.161
-0.064058334 -0.062024739 1.1620001
-0.062131494 -0.062131494 1.164
-0.06035253 -0.062398378 1.169
-0.058306683 -0.062398378 1.169
-0.056212708 -0.062345009 1.1680001
-0.054122232 -0.062291626 1.1670001
-0.052213769 -0.062451757 1.1700001
-0.050294802 -0.062611893 1.1730001
-0.048447587 -0.062878788 1.1780001
-0.046504118 -0.063038915 1.1810001
-0.044663023 -0.063359179 1.187
-0.042729184 -0.06357269 1.1910001
-0.040815469 -0.063839577 1.1960001
-0.038819492 -0.063999705 1.199
-0.036813021 -0.064159833 1.202
-0.034796052 -0.064319976 1.205
-0.032931339 -0.064800374 1.2140001
-0.11617235 -0.062882274 1.2180001
-0.11338534 -0.062520891 1.2110001
-0.11043906 -0.062056236 1.202
-0.10806508 -0.061901353 1.199
-0.10587835 -0.061849732 1.1980001
-0.10369512 -0.061798099 1.197
-0.101091 -0.061488338 1.1910001
-0.098674133 -0.06128183 1.187
-0.096189879 -0.061023686 1.182
-0.093802772 -0.060817182 1.1780001
-0.091507532 -0.060662299 1.1750001
-0.089375049 -0.060610667 1.174
-0.087246083 -0.060559046 1.1730001
-0.085047968 -0.06045578 1.171
-0.082715109 -0.06024928 1.1670001
-0.08039625 -0.060042769 1.1630001
-0.078226142 -0.059939511 1.161
-0.076128669 -0.059887886 1.1600001
-0.074034691 -0.059836257 1.159
-0.071944222 -0.059784632 1.1580001
-0.069917619 -0.059784632 1.1580001
-0.067891024 -0.059784632 1.1580001
-0.065864421 -0.059784632 1.1580001
-0.063892953 -0.059836257 1.159
-0.061971355 -0.059939511 1.161
-0.060146026 -0.060146026 1.1650001
-0.058256809 -0.060300905 1.1680001
-0.056260832 -0.06035253 1.169
-0.054214984 -0.06035253 1.169
-0.052213769 -0.060404163 1.1700001
-0.05025192 -0.060507413 1.1720001
-0.048365328 -0.060713924 1.176
-0.046504118 -0.060972068 1.1810001
-0.044663023 -0.06128183 1.187
-0.042693306 -0.061436713 1.1900001
-0.040781341 -0.061694849 1.1950001
-0.038754743 -0.061798099 1.197
-0.036813021 -0.062056236 1.202
-0.034796052 -0.062211119 1.205
-0.11607696 -0.0607008 1.217
-0.1132917 -0.060351655 1.21
-0.11062284 -0.060052395 1.2040001
-0.10833547 -0.059952635 1.202
-0.10605511 -0.059852883 1.2
-0.10378175 -0.059753127 1.1980001
-0.10117587 -0.05945386 1.192
-0.098591007 -0.0591546 1.1860001
-0.096108504 -0.058905218 1.1810001
-0.093643509 -0.058655821 1.176
-0.091429651 -0.058556069 1.174
-0.089298934 -0.058506198 1.1730001
-0.087171696 -0.058456313 1.1720001
-0.084975347 -0.058356561 1.1700001
-0.082644224 -0.058157045 1.166
-0.08039625 -0.058007423 1.1630001
-0.078091383 -0.057807911 1.159
-0.075997412 -0.057758033 1.1580001
-0.073970817 -0.057758033 1.1580001
-0.071944222 -0.057758033 1.1580001
-0.069917619 -0.057758033 1.1580001
-0.067891024 -0.057758033 1.1580001
-0.065921299 -0.057807911 1.159
-0.064003207 -0.057907663 1.161
-0.061971355 -0.057907663 1.161
-0.060042769 -0.058007423 1.1630001
-0.058057293 -0.058057293 1.164
-0.056164581 -0.058206931 1.1670001
-0.054214984 -0.058306683 1.169
-0.052258391 -0.058406439 1.171
-0.05025192 -0.058456313 1.1720001
-0.048365328 -0.058655821 1.176
-0.046464738 -0.058855332 1.1800001
-0.044625401 -0.0591546 1.1860001
-0.042693306 -0.059354108 1.1900001
-0.040747214 -0.059553616 1.194
-0.038754743 -0.059703253 1.197
-0.03684365 -0.060002517 1.2030001
-0.034911558 -0.060301784 1.2090001
-0.1158862 -0.058474693 1.215
-0.1132917 -0.058234055 1.21
-0.11062284 -0.057945296 1.2040001
-0.10851573 -0.057945296 1.2040001
-0.10623186 -0.057849035 1.202
-0.10369512 -0.057608396 1.197
-0.10117587 -0.057367764 1.192
-0.098507866 -0.057030872 1.1850001
-0.096027128 -0.056790233 1.1800001
-0.093643509 -0.056597725 1.176
-0.091429651 -0.056501471 1.174
-0.089146666 -0.056357086 1.171
-0.087022945 -0.056308966 1.1700001
-0.084902711 -0.056260832 1.169
-0.082644224 -0.056116447 1.166
-0.080465376 -0.0560202 1.164
-0.078158766 -0.055827688 1.1600001
-0.075997412 -0.055731438 1.1580001
-0.073970817 -0.055731438 1.1580001
-0.072006345 -0.055779561 1.159
-0.070038378 -0.055827688 1.1600001
-0.067949645 -0.055779561 1.159
-0.066035055 -0.055875815 1.161
-0.064003207 -0.055875815 1.161
-0.061971355 -0.055875815 1.161
-0.059887886 -0.055827688 1.1600001
-0.057907663 -0.055875815 1.161
-0.0560202 -0.0560202 1.164
-0.054168612 -0.056212708 1.1680001
-0.052213769 -0.056308966 1.1700001
-0.05025192 -0.056405213 1.1720001
-0.048283074 -0.056501471 1.174
-0.046385989 -0.056693986 1.1780001
-0.044550147 -0.056982744 1.184
-0.042621553 -0.057175256 1.1880001
-0.040747214 -0.057464015 1.194
-0.038754743 -0.057608396 1.197
-0.03684365 -0.057897162 1.2030001
-0.03488268 -0.058137801 1.2080001
-0.11598159 -0.056394719 1.2160001
-0.11338534 -0.056162834 1.2110001
-0.1107147 -0.055884566 1.205
-0.10842559 -0.055791814 1.2030001
-0.10605511 -0.055652682 1.2
-0.10352186 -0.055420794 1.1950001
-0.101091 -0.055235289 1.1910001
-0.09842474 -0.054910641 1.184
-0.096189879 -0.054817893 1.182
-0.093723141 -0.054586004 1.177
-0.091429651 -0.054446869 1.174
-0.089146666 -0.054307736 1.171
-0.086948566 -0.054214984 1.169
-0.08483009 -0.054168612 1.1680001
-0.082644224 -0.054075852 1.166
-0.080465376 -0.0539831 1.164
-0.078226142 -0.053843968 1.161
-0.076128669 -0.053797591 1.1600001
-0.074098572 -0.053797591 1.1600001
-0.072068475 -0.053797591 1.1600001
-0.070038378 -0.053797591 1.1600001
-0.068008281 -0.053797591 1.1600001
-0.066035055 -0.053843968 1.161
-0.064058334 -0.053890344 1.1620001
-0.062078118 -0.053936727 1.1630001
-0.059991144 -0.053890344 1.1620001
-0.057907663 -0.053843968 1.161
-0.055923946 -0.053890344 1.1620001
-0.054029476 -0.054029476 1.1650001
-0.052213769 -0.054261364 1.1700001
-0.050294802 -0.0544005 1.1730001
-0.048324201 -0.054493252 1.1750001
-0.046385989 -0.054632384 1.1780001
-0.044512521 -0.054864269 1.1830001
-0.042621553 -0.055096157 1.1880001
-0.040713087 -0.055328041 1.1930001
-0.038754743 -0.05551355 1.197
-0.036782399 -0.055699058 1.2010001
-0.034853805 -0.055977318 1.207
-0.11598159 -0.054266613 1.2160001
-0.1132917 -0.05399885 1.21
-0.11062284 -0.053731091 1.2040001
-0.10824534 -0.053597208 1.2010001
-0.10587835 -0.053463325 1.1980001
-0.10326197 -0.053195558 1.192
-0.10083636 -0.053017057 1.1880001
-0.09825848 -0.052749291 1.182
-0.096108504 -0.052704666 1.1810001
-0.093723141 -0.052526154 1.177
-0.091351777 -0.052347649 1.1730001
-0.088994414 -0.052169137 1.169
-0.086725421 -0.052035253 1.166
-0.084612206 -0.051990632 1.1650001
-0.082431599 -0.051901374 1.1630001
-0.080327116 -0.051856749 1.1620001
-0.078158766 -0.051767495 1.1600001
-0.076063037 -0.051722866 1.159
-0.073970817 -0.051678244 1.1580001
-0.071882084 -0.051633611 1.1570001
-0.069857247 -0.051633611 1.1570001
-0.067832395 -0.051633611 1.1570001
-0.065807544 -0.051633611 1.1570001
-0.063837834 -0.051678244 1.1580001
-0.061864607 -0.051722866 1.159
-0.059939511 -0.05181212 1.161
-0.057857785 -0.051767495 1.1600001
-0.055875815 -0.05181212 1.161
-0.053890344 -0.051856749 1.1620001
-0.052035253 -0.052035253 1.166
-0.050123289 -0.052169137 1.169
-0.048200823 -0.05230302 1.1720001
-0.046307229 -0.052481528 1.176
-0.044362012 -0.052615408 1.179
-0.042478044 -0.052838545 1.184
-0.040576581 -0.053061679 1.189
-0.038592856 -0.053195558 1.192
-0.036629267 -0.053374074 1.1960001
-0.034738299 -0.053686462 1.2030001
-0.11607696 -0.052181385 1.217
-0.1132917 -0.051881246 1.21
-0.1107147 -0.051666863 1.205
-0.10833547 -0.051538233 1.202
-0.10596672 -0.051409598 1.199
-0.10352186 -0.051238094 1.1950001
-0.10100612 -0.051023707 1.1900001
-0.09842474 -0.050766442 1.184
-0.096108504 -0.050637819 1.1810001
-0.093882397 -0.050552059 1.179
-0.091507532 -0.050380554 1.1750001
-0.089146666 -0.050209042 1.171
-0.086874187 -0.050080415 1.1680001
-0.084757462 -0.050037537 1.1670001
-0.082502477 -0.049908906 1.164
-0.08039625 -0.049866032 1.1630001
-0.078226142 -0.049780272 1.161
-0.076128669 -0.049737398 1.1600001
-0.074034691 -0.049694516 1.159
-0.071882084 -0.049608767 1.1570001
-0.069857247 -0.049608767 1.1570001
-0.067773767 -0.049565885 1.156
-0.065750666 -0.049565885 1.156
-0.063837834 -0.049651645 1.1580001
-0.061917983 -0.049737398 1.1600001
-0.059991144 -0.04982315 1.1620001
-0.057907663 -0.049780272 1.161
-0.055972073 -0.049866032 1.1630001
-0.054029476 -0.049951781 1.1650001
-0.052124511 -0.050080415 1.1680001
-0.05025192 -0.05025192 1.1720001
-0.048324201 -0.050380554 1.1750001
-0.046385989 -0.050509185 1.1780001
-0.044437267 -0.050637819 1.1810001
-0.042513922 -0.050809324 1.1850001
-0.040542454 -0.050937958 1.1880001
-0.038592856 -0.051109459 1.192
-0.036690518 -0.051366724 1.1980001
-0.03482493 -0.051709745 1.2060001
-0.1158862 -0.049969282 1.215
-0.11291719 -0.049599141 1.2060001
-0.1103472 -0.049393509 1.2010001
-0.10806508 -0.04931125 1.199
-0.10578997 -0.049228996 1.197
-0.10343523 -0.049105614 1.194
-0.10083636 -0.048858855 1.1880001
-0.09825848 -0.048612092 1.182
-0.09586437 -0.048447587 1.1780001
-0.093643509 -0.048365328 1.176
-0.091429651 -0.048283074 1.174
-0.089146666 -0.048159692 1.171
-0.086874187 -0.048036315 1.1680001
-0.08453957 -0.047871806 1.164
-0.082360715 -0.047789551 1.1620001
-0.080188863 -0.047707301 1.1600001
-0.078091383 -0.047666173 1.159
-0.075997412 -0.047625046 1.1580001
-0.073779188 -0.047501665 1.1550001
-0.071695708 -0.047460537 1.154
-0.069676101 -0.047460537 1.154
-0.06765651 -0.047460537 1.154
-0.065580033 -0.047419406 1.153
-0.063617311 -0.047460537 1.154
-0.061704468 -0.047542788 1.156
-0.059784632 -0.047625046 1.1580001
-0.057807911 -0.047666173 1.159
-0.055923946 -0.047789551 1.1620001
-0.054029476 -0.047912937 1.1650001
-0.052079882 -0.047995187 1.1670001
-0.050166167 -0.048118569 1.1700001
-0.048200823 -0.048200823 1.1720001
-0.046307229 -0.048365328 1.176
-0.044362012 -0.04848871 1.179
-0.042442169 -0.048653223 1.1830001
-0.040542454 -0.048858855 1.1880001
-0.038560484 -0.048982237 1.1910001
-0.036659889 -0.049228996 1.197
-0.034796052 -0.049558014 1.205
-0.11598159 -0.047882307 1.2160001
-0.11310446 -0.047567293 1.2080001
-0.11053095 -0.047370408 1.2030001
-0.10824534 -0.047291655 1.2010001
-0.10596672 -0.047212899 1.199
-0.10360849 -0.04709477 1.1960001
-0.10100612 -0.046858508 1.1900001
-0.098341614 -0.04658287 1.1830001
-0.095945746 -0.046425361 1.179
-0.093643509 -0.046307229 1.176
-0.091585405 -0.046307229 1.176
-0.089222796 -0.046149723 1.1720001
-0.087022945 -0.046070967 1.1700001
-0.084684826 -0.045913462 1.166
-0.082573354 -0.045874085 1.1650001
-0.080257989 -0.045716573 1.161
-0.078091383 -0.045637824 1.159
-0.075866155 -0.045519691 1.156
-0.073843054 -0.045519691 1.156
-0.071757831 -0.045480315 1.1550001
-0.069736488 -0.045480315 1.1550001
-0.06765651 -0.045440938 1.154
-0.06563691 -0.045440938 1.154
-0.063727573 -0.045519691 1.156
-0.061811231 -0.045598447 1.1580001
-0.059836257 -0.045637824 1.159
-0.057857785 -0.045677204 1.1600001
-0.055972073 -0.045795336 1.1630001
-0.054075852 -0.045913462 1.166
-0.052213769 -0.046070967 1.1700001
-0.050337672 -0.046228476 1.174
-0.048406456 -0.046346609 1.177
-0.046425361 -0.046425361 1.179
-0.044474892 -0.046543494 1.182
-0.0425498 -0.046701003 1.1860001
-0.040644836 -0.046897888 1.1910001
-0.038689986 -0.04705539 1.1950001
-0.036751769 -0.047252279 1.2
-0.11319808 -0.045490816 1.2090001
-0.11043906 -0.045227427 1.202
-0.10797495 -0.045076922 1.1980001
-0.1057016 -0.045001671 1.1960001
-0.10326197 -0.044851158 1.192
-0.10075147 -0.044663023 1.187
-0.098175354 -0.044437267 1.1810001
-0.095782988 -0.044286758 1.177
-0.093484245 -0.044173878 1.174
-0.091351777 -0.044136252 1.1730001
-0.089070544 -0.044023372 1.1700001
-0.086799808 -0.043910492 1.1670001
-0.084466949 -0.043759983 1.1630001
-0.082360715 -0.043722358 1.1620001
-0.080119736 -0.043609474 1.159
-0.077956632 -0.043534223 1.1570001
-0.075734898 -0.043421339 1.154
-0.073715299 -0.043421339 1.154
-0.07163357 -0.04338371 1.153
-0.069615722 -0.04338371 1.153
-0.067539252 -0.043346088 1.1520001
-0.065523155 -0.043346088 1.1520001
-0.063617311 -0.043421339 1.154
-0.061704468 -0.043496594 1.156
-0.059784632 -0.043571852 1.1580001
-0.057758033 -0.043571852 1.1580001
-0.055875815 -0.043684728 1.161
-0.053936727 -0.043759983 1.1630001
-0.052035253 -0.043872863 1.166
-0.050209042 -0.044060998 1.171
-0.048283074 -0.044173878 1.174
-0.046385989 -0.044324387 1.1780001
-0.044437267 -0.044437267 1.1810001
-0.042585675 -0.044663023 1.187
-0.040678959 -0.044851158 1.192
-0.038689986 -0.044964042 1.1950001
-0.036721144 -0.045114547 1.199
-0.11357259 -0.043518472 1.2130001
-0.11080659 -0.043267336 1.2060001
-0.10833547 -0.043123826 1.202
-0.10587835 -0.042980321 1.1980001
-0.10343523 -0.042836811 1.194
-0.10083636 -0.042621553 1.1880001
-0.098341614 -0.042442169 1.1830001
-0.09586437 -0.042262789 1.1780001
-0.093643509 -0.042191029 1.176
-0.091429651 -0.04211928 1.174
-0.089298934 -0.042083401 1.1730001
-0.086874187 -0.041904021 1.1680001
-0.084612206 -0.04179639 1.1650001
-0.082502477 -0.041760512 1.164
-0.080327116 -0.041688759 1.1620001
-0.078158766 -0.041617006 1.1600001
-0.07593178 -0.041509375 1.1570001
-0.073906936 -0.041509375 1.1570001
-0.071882084 -0.041509375 1.1570001
-0.06979686 -0.041473497 1.156
-0.067715146 -0.041437622 1.1550001
-0.065750666 -0.041473497 1.156
-0.063782699 -0.041509375 1.1570001
-0.061864607 -0.041581128 1.159
-0.059887886 -0.041617006 1.1600001
-0.057907663 -0.041652881 1.161
-0.055972073 -0.041724637 1.1630001
-0.054029476 -0.04179639 1.1650001
-0.052124511 -0.041904021 1.1680001
-0.05025192 -0.042047527 1.1720001
-0.048365328 -0.042191029 1.176
-0.046464738 -0.042334538 1.1800001
-0.044587772 -0.042513922 1.1850001
-0.042657427 -0.042657427 1.189
-0.040747214 -0.042836811 1.194
-0.038787119 -0.042980321 1.1980001
-0.03684365 -0.043159705 1.2030001
-0.11366623 -0.041429747 1.2140001
-0.11080659 -0.041156735 1.2060001
-0.10842559 -0.041054353 1.2030001
-0.10587835 -0.04088372 1.1980001
-0.10334861 -0.040713087 1.1930001
-0.10075147 -0.040508326 1.187
-0.098341614 -0.04037182 1.1830001
-0.095782988 -0.04016706 1.177
-0.093484245 -0.040064678 1.174
-0.091196015 -0.039962295 1.171
-0.089146666 -0.039962295 1.171
-0.086799808 -0.039825793 1.1670001
-0.084612206 -0.039757539 1.1650001
-0.082360715 -0.03965516 1.1620001
-0.080327116 -0.03965516 1.1620001
-0.078226142 -0.039621033 1.161
-0.076128669 -0.039586905 1.1600001
-0.074034691 -0.039552778 1.159
-0.071944222 -0.039518654 1.1580001
-0.069857247 -0.039484527 1.1570001
-0.067773767 -0.0394504 1.156
-0.065807544 -0.039484527 1.1570001
-0.063782699 -0.039484527 1.1570001
-0.061864607 -0.039552778 1.159
-0.059887886 -0.039586905 1.1600001
-0.057907663 -0.039621033 1.161
-0.055972073 -0.039689288 1.1630001
-0.054029476 -0.039757539 1.1650001
-0.052079882 -0.039825793 1.1670001
-0.050209042 -0.039962295 1.171
-0.048283074 -0.040064678 1.174
-0.046425361 -0.040235311 1.179
-0.044512521 -0.04037182 1.1830001
-0.0425498 -0.040474202 1.1860001
-0.040678959 -0.040678959 1.192
-0.038754743 -0.040849593 1.197
-0.036874276 -0.041088481 1.2040001
-0.11135786 -0.03924039 1.212
-0.1090565 -0.039175637 1.21
-0.10632025 -0.038949002 1.2030001
-0.10378175 -0.038787119 1.1980001
-0.101091 -0.038560484 1.1910001
-0.098674133 -0.038430978 1.187
-0.096189879 -0.038269091 1.182
-0.093882397 -0.038171962 1.179
-0.091585405 -0.038074832 1.176
-0.089451186 -0.03804246 1.1750001
-0.087171696 -0.037945326 1.1720001
-0.084975347 -0.037880573 1.1700001
-0.082785994 -0.037815824 1.1680001
-0.080672756 -0.037783444 1.1670001
-0.078495659 -0.037718695 1.1650001
-0.076522432 -0.037751067 1.166
-0.074417964 -0.037718695 1.1650001
-0.072254859 -0.037653942 1.1630001
-0.07009875 -0.037589185 1.161
-0.068066902 -0.037589185 1.161
-0.06609194 -0.037621565 1.1620001
-0.064058334 -0.037621565 1.1620001
-0.062078118 -0.037653942 1.1630001
-0.060146026 -0.037718695 1.1650001
-0.058206931 -0.037783444 1.1670001
-0.056308966 -0.037880573 1.1700001
-0.054307736 -0.03791295 1.171
-0.05239227 -0.038010079 1.174
-0.050423428 -0.038074832 1.176
-0.048447587 -0.038139589 1.1780001
-0.046543494 -0.038269091 1.182
-0.044625401 -0.038398601 1.1860001
-0.042657427 -0.038495727 1.189
-0.040781341 -0.038689986 1.1950001
-0.038851872 -0.038851872 1.2
-0.11172538 -0.037241794 1.2160001
-0.10923675 -0.037119288 1.212
-0.10640863 -0.036874276 1.2040001
-0.10378175 -0.036690518 1.1980001
-0.10126076 -0.036537383 1.1930001
-0.098923512 -0.036445506 1.1900001
-0.096515402 -0.036323 1.1860001
-0.094121285 -0.036200494 1.182
-0.091896929 -0.036139242 1.1800001
-0.089679569 -0.036077987 1.1780001
-0.087543592 -0.036047358 1.177
-0.085265853 -0.035955481 1.174
-0.082998618 -0.035863601 1.171
-0.080741897 -0.035771728 1.1680001
-0.078697793 -0.035771728 1.1680001
-0.076719321 -0.035802349 1.169
-0.074545711 -0.035741094 1.1670001
-0.072441243 -0.035710469 1.166
-0.070279881 -0.035649218 1.164
-0.068242781 -0.035649218 1.164
-0.066262566 -0.035679843 1.1650001
-0.064223722 -0.035679843 1.1650001
-0.062238246 -0.035710469 1.166
-0.060300905 -0.035771728 1.1680001
-0.058306683 -0.035802349 1.169
-0.056357086 -0.035863601 1.171
-0.054354116 -0.035894226 1.1720001
-0.052436899 -0.035986111 1.1750001
-0.050466307 -0.036047358 1.177
-0.048529837 -0.036139242 1.1800001
-0.04658287 -0.036231119 1.1830001
-0.044663023 -0.036353625 1.187
-0.042729184 -0.036476135 1.1910001
-0.040815469 -0.036629267 1.1960001
-0.038884249 -0.036782399 1.2010001
-0.11218478 -0.035258073 1.2210001
-0.10959728 -0.035113692 1.2160001
-0.10676214 -0.03488268 1.2080001
-0.10412826 -0.03470942 1.202
-0.10177002 -0.034622792 1.199
-0.099505417 -0.034565039 1.197
-0.097166426 -0.034478411 1.194
-0.094678678 -0.034334026 1.189
-0.092364199 -0.034247402 1.1860001
-0.090136342 -0.034189645 1.184
-0.087989867 -0.03416077 1.1830001
-0.085774265 -0.034103017 1.1810001
-0.083565645 -0.034045264 1.179
-0.081364043 -0.033987515 1.177
-0.079169437 -0.033929758 1.1750001
-0.07704746 -0.033900883 1.174
-0.07486511 -0.03384313 1.1720001
-0.072751872 -0.033814255 1.171
-0.070642151 -0.033785377 1.1700001
-0.068653181 -0.033814255 1.171
-0.066603832 -0.033814255 1.171
-0.064609617 -0.03384313 1.1720001
-0.062558517 -0.03384313 1.1720001
-0.060610667 -0.033900883 1.174
-0.05860595 -0.033929758 1.1750001
-0.056597725 -0.033958632 1.176
-0.054632384 -0.034016389 1.1780001
-0.052704666 -0.034103017 1.1810001
-0.050723568 -0.03416077 1.1830001
-0.048776601 -0.034247402 1.1860001
-0.046819128 -0.034334026 1.189
-0.044926412 -0.034478411 1.194
-0.042944442 -0.034565039 1.197
-0.041020226 -0.03470942 1.202
-0.039078508 -0.034853805 1.207
-0.11236854 -0.033175472 1.223
-0.1096874 -0.033012714 1.217
