# .PCD v0.7 - Point Cloud Data file format
VERSION 0.7
FIELDS x y z
SIZE 4 4 4
TYPE F F F
COUNT 1 1 1
WIDTH 1434
HEIGHT 1
VIEWPOINT 0 0 0 1 0 0 0
POINTS 1434
DATA ascii
-0.044594772 -0.14248574 1.243
-0.042248785 -0.14191259 1.238
-0.040211689 -0.14237112 1.2420001
-0.037884951 -0.14179796 1.2370001
-0.088461511 -0.13748838 1.2180001
-0.085762881 -0.13658534 1.21
-0.08378353 -0.13681109 1.212
-0.082336217 -0.13793989 1.222
-0.080328874 -0.13816565 1.2240001
-0.077867381 -0.13760126 1.2190001
-0.075609758 -0.13737549 1.217
-0.073721431 -0.13782701 1.2210001
-0.071701825 -0.13805278 1.223
-0.069675229 -0.13827854 1.225
-0.06747625 -0.13816565 1.2240001
-0.065387517 -0.13827854 1.225
-0.063295305 -0.13839142 1.2260001
-0.06109982 -0.13827854 1.225
-0.058955964 -0.13827854 1.225
-0.056858491 -0.13839142 1.2260001
-0.054802138 -0.13861717 1.228
-0.052738789 -0.13884293 1.23
-0.050627314 -0.13895582 1.2310001
-0.048630465 -0.13940734 1.235
-0.046469111 -0.13940734 1.235
-0.04420013 -0.13906871 1.2320001
-0.042009898 -0.13895582 1.2310001
-0.039823167 -0.13884293 1.23
-0.037578687 -0.13850431 1.2270001
-0.035200324 -0.13760126 1.2190001
-0.033121221 -0.13782701 1.2210001
-0.091039389 -0.13602355 1.2240001
-0.087953113 -0.13457887 1.2110001
-0.085195847 -0.13357869 1.202
-0.083714411 -0.13457887 1.2110001
-0.082336217 -0.13580129 1.222
-0.080328874 -0.13602355 1.2240001
-0.07805901 -0.13580129 1.222
-0.07579615 -0.13557902 1.22
-0.073721431 -0.13569017 1.2210001
-0.071525946 -0.13557902 1.22
-0.069504596 -0.13580129 1.222
-0.067365989 -0.13580129 1.222
-0.065174013 -0.13569017 1.2210001
-0.063037157 -0.13569017 1.2210001
-0.060950182 -0.13580129 1.222
-0.05890784 -0.13602355 1.2240001
-0.056719355 -0.13591242 1.223
-0.054579001 -0.13591242 1.223
-0.052524403 -0.13613467 1.225
-0.050421678 -0.13624582 1.2260001
-0.048276074 -0.13624582 1.2260001
-0.0461681 -0.13635695 1.2270001
-0.044056624 -0.13646808 1.228
-0.04197577 -0.13669033 1.23
-0.039726041 -0.13635695 1.2270001
-0.037609313 -0.13646808 1.228
-0.035373576 -0.13613467 1.225
-0.0332026 -0.13602355 1.2240001
-0.094018899 -0.13508463 1.235
-0.091188148 -0.13410021 1.2260001
-0.087735228 -0.13213137 1.2080001
-0.085833758 -0.13245951 1.2110001
-0.084060051 -0.13300641 1.2160001
-0.0820667 -0.13322516 1.2180001
-0.07967259 -0.13278766 1.2140001
-0.07754799 -0.13278766 1.2140001
-0.075485505 -0.13289702 1.215
-0.073419541 -0.13300641 1.2160001
-0.071232803 -0.13289702 1.215
-0.069106452 -0.13289702 1.215
-0.066980101 -0.13289702 1.215
-0.06485375 -0.13289702 1.215
-0.062727399 -0.13289702 1.215
-0.060650922 -0.13300641 1.2160001
-0.058619075 -0.13322516 1.2180001
-0.056441091 -0.13311578 1.217
-0.054355871 -0.13322516 1.2180001
-0.052352898 -0.13355331 1.2210001
-0.050216045 -0.13355331 1.2210001
-0.048000436 -0.13333456 1.2190001
-0.045829456 -0.13322516 1.2180001
-0.043805487 -0.13355331 1.2210001
-0.041805137 -0.13399082 1.225
-0.039693665 -0.13410021 1.2260001
-0.037609313 -0.13431896 1.228
-0.035402458 -0.13410021 1.2260001
-0.033419613 -0.13475651 1.2320001
-0.10034021 -0.13270803 1.233
-0.09818235 -0.13270803 1.233
-0.096180253 -0.13292328 1.235
-0.093866646 -0.13270803 1.233
-0.091113761 -0.13184698 1.225
-0.088534147 -0.13120119 1.2190001
-0.086046398 -0.13066304 1.2140001
-0.084267437 -0.13120119 1.2190001
-0.081931949 -0.1308783 1.2160001
-0.07967259 -0.13066304 1.2140001
-0.077420227 -0.13044778 1.212
-0.075361252 -0.13055541 1.2130001
-0.073359154 -0.13077067 1.215
-0.071174182 -0.13066304 1.2140001
-0.068935819 -0.13044778 1.212
-0.066814721 -0.13044778 1.212
-0.064586863 -0.13023251 1.21
-0.062520891 -0.13034014 1.2110001
-0.060351655 -0.13023251 1.21
-0.058330309 -0.13044778 1.212
-0.056209207 -0.13044778 1.212
-0.054221984 -0.13077067 1.215
-0.052138511 -0.1308783 1.2160001
-0.049969282 -0.13077067 1.215
-0.047764175 -0.13055541 1.2130001
-0.045678951 -0.13066304 1.2140001
-0.043697856 -0.13109356 1.2180001
-0.041702759 -0.13152409 1.222
-0.039628908 -0.13173935 1.2240001
-0.037578687 -0.13206224 1.2270001
-0.035517961 -0.13238513 1.23
-0.033528116 -0.13303092 1.2360001
-0.10594748 -0.12949136 1.223
-0.10457104 -0.13044429 1.2320001
-0.10266432 -0.13076192 1.235
-0.099689178 -0.12970312 1.225
-0.097067557 -0.12906784 1.2190001
-0.094622679 -0.12864432 1.215
-0.092344075 -0.12843257 1.2130001
-0.090444356 -0.12875021 1.2160001
-0.088388883 -0.12885608 1.217
-0.08597552 -0.12843257 1.2130001
-0.083714411 -0.1282208 1.2110001
-0.081595063 -0.1282208 1.2110001
-0.079410069 -0.12811492 1.21
-0.077164717 -0.12790316 1.2080001
-0.075050615 -0.12790316 1.2080001
-0.073057272 -0.12811492 1.21
-0.07093966 -0.12811492 1.21
-0.06859456 -0.1276914 1.2060001
-0.066428825 -0.12758552 1.205
-0.064213216 -0.12737375 1.2030001
-0.062211119 -0.12758552 1.205
-0.060052395 -0.12747966 1.2040001
-0.057945296 -0.12747966 1.2040001
-0.055838194 -0.12747966 1.2040001
-0.053820346 -0.1276914 1.2060001
-0.051838376 -0.12800905 1.2090001
-0.049763646 -0.12811492 1.21
-0.047646042 -0.12811492 1.21
-0.045490816 -0.12800905 1.2090001
-0.043482594 -0.12832668 1.212
-0.041463871 -0.12864432 1.215
-0.039402269 -0.12885608 1.217
-0.03739493 -0.12927961 1.2210001
-0.035373576 -0.12970312 1.225
-0.033365358 -0.13023251 1.23
-0.031238129 -0.1303384 1.2310001
-0.10923676 -0.12870471 1.2360001
-0.10603411 -0.12745515 1.2240001
-0.10414664 -0.12776753 1.2270001
-0.10241494 -0.12828819 1.2320001
-0.099851936 -0.12776753 1.2270001
-0.097226813 -0.12714276 1.2210001
-0.094466932 -0.12630971 1.2130001
-0.092191823 -0.12610145 1.2110001
-0.090518728 -0.12672623 1.217
-0.088534147 -0.12693448 1.2190001
-0.086046398 -0.12641385 1.2140001
-0.083852664 -0.12630971 1.2130001
-0.081729807 -0.12630971 1.2130001
-0.079541326 -0.12620556 1.212
-0.077228598 -0.12589321 1.2090001
-0.074988484 -0.12568492 1.207
-0.072876133 -0.12568492 1.207
-0.07082241 -0.12578906 1.2080001
-0.068480805 -0.12537254 1.2040001
-0.066318572 -0.12526841 1.2030001
-0.064106472 -0.12506016 1.2010001
-0.062056236 -0.12516429 1.202
-0.059902765 -0.12506016 1.2010001
-0.057849035 -0.12516429 1.202
-0.055745434 -0.12516429 1.202
-0.053686462 -0.12526841 1.2030001
-0.051666863 -0.12547667 1.205
-0.049681395 -0.12578906 1.2080001
-0.047606673 -0.12589321 1.2090001
-0.045490816 -0.12589321 1.2090001
-0.043410841 -0.12599732 1.21
-0.041327368 -0.12610145 1.2110001
-0.03924039 -0.12620556 1.212
-0.037241794 -0.1266221 1.2160001
-0.035200324 -0.12693448 1.2190001
-0.033148345 -0.12724687 1.222
-0.031085873 -0.12755927 1.225
-0.029083777 -0.12818405 1.2310001
-0.10923676 -0.12654158 1.2360001
-0.10534108 -0.12449399 1.2160001
-0.10423152 -0.12572256 1.228
-0.1017499 -0.12531304 1.2240001
-0.099770553 -0.12551779 1.2260001
-0.097226813 -0.1250059 1.2210001
-0.094856322 -0.12469876 1.2180001
-0.092115685 -0.12387972 1.21
-0.090295605 -0.12428924 1.2140001
-0.088243626 -0.12439161 1.215
-0.085904635 -0.12408447 1.212
-0.083576158 -0.12377734 1.2090001
-0.08125817 -0.12347019 1.2060001
-0.079213187 -0.12357258 1.207
-0.076973081 -0.12336782 1.205
-0.07473997 -0.12316306 1.2030001
-0.072513871 -0.1229583 1.2010001
-0.070353389 -0.12285592 1.2
-0.068139531 -0.12265117 1.1980001
-0.065987803 -0.12254877 1.197
-0.063892946 -0.12254877 1.197
-0.061849732 -0.12265117 1.1980001
-0.059803005 -0.12275354 1.199
-0.057704654 -0.12275354 1.199
-0.055606302 -0.12275354 1.199
-0.053552579 -0.12285592 1.2
-0.051538233 -0.12306067 1.202
-0.049516886 -0.12326545 1.2040001
-0.04744916 -0.12336782 1.205
-0.04537794 -0.12347019 1.2060001
-0.043267336 -0.12347019 1.2060001
-0.041190859 -0.12357258 1.207
-0.039110884 -0.12367497 1.2080001
-0.037058037 -0.12387972 1.21
-0.034998186 -0.12408447 1.212
-0.032931339 -0.12428924 1.2140001
-0.030882861 -0.12459638 1.217
-0.028942019 -0.12541541 1.225
-0.11185052 -0.12488165 1.2410001
-0.10932515 -0.12447912 1.2370001
-0.10603411 -0.12317093 1.2240001
-0.10448616 -0.12387534 1.2310001
-0.10208242 -0.12357344 1.228
-0.10017745 -0.12387534 1.2310001
-0.097704589 -0.12347282 1.2270001
-0.095479347 -0.12337219 1.2260001
-0.092572458 -0.1223659 1.2160001
-0.090741873 -0.12276841 1.22
-0.088534147 -0.12266779 1.2190001
-0.08597552 -0.12206401 1.2130001
-0.083645277 -0.12176212 1.21
-0.08125817 -0.12135961 1.2060001
-0.079147562 -0.12135961 1.2060001
-0.076909207 -0.12115834 1.2040001
-0.07473997 -0.1210577 1.2030001
-0.072513871 -0.12085645 1.2010001
-0.07029476 -0.12065518 1.199
-0.068196408 -0.12065518 1.199
-0.065987803 -0.12045392 1.197
-0.063946329 -0.12055456 1.1980001
-0.061849732 -0.12055456 1.1980001
-0.059753127 -0.12055456 1.1980001
-0.05765653 -0.12055456 1.1980001
-0.055559926 -0.12055456 1.1980001
-0.05350795 -0.12065518 1.199
-0.051495355 -0.12085645 1.2010001
-0.049475759 -0.1210577 1.2030001
-0.047370408 -0.1210577 1.2030001
-0.045340311 -0.12125897 1.205
-0.043267336 -0.12135961 1.2060001
-0.041190859 -0.12146023 1.207
-0.039078508 -0.12146023 1.207
-0.036996782 -0.12156086 1.2080001
-0.034940433 -0.12176212 1.21
-0.03287708 -0.12196337 1.212
-0.030857489 -0.1223659 1.2160001
-0.028942019 -0.12327155 1.225
-0.11149 -0.12231427 1.2370001
-0.10906 -0.12201764 1.2340001
-0.10646725 -0.12152324 1.2290001
-0.10414664 -0.12132548 1.2270001
-0.1017499 -0.12102883 1.2240001
-0.099607803 -0.12102883 1.2240001
-0.097147182 -0.1206333 1.22
-0.094622679 -0.12013891 1.215
-0.091963433 -0.11944676 1.2080001
-0.090072468 -0.11974339 1.2110001
-0.087662593 -0.11934788 1.207
-0.085479371 -0.119249 1.2060001
-0.083230518 -0.11905125 1.2040001
-0.081123412 -0.11905125 1.2040001
-0.079016313 -0.11905125 1.2040001
-0.076781444 -0.11885347 1.202
-0.074553594 -0.11865572 1.2
-0.072332732 -0.11845796 1.1980001
-0.070118874 -0.1182602 1.1960001
-0.068025775 -0.1182602 1.1960001
-0.065877549 -0.11816131 1.1950001
-0.063839577 -0.1182602 1.1960001
-0.061694849 -0.11816131 1.1950001
-0.059603497 -0.11816131 1.1950001
-0.057512149 -0.11816131 1.1950001
-0.055420794 -0.11816131 1.1950001
-0.053374074 -0.1182602 1.1960001
-0.051323846 -0.11835907 1.197
-0.049270123 -0.11845796 1.1980001
-0.047252279 -0.11865572 1.2
-0.045189805 -0.1187546 1.2010001
-0.043159705 -0.11895236 1.2030001
-0.041088481 -0.11905125 1.2040001
-0.039013755 -0.11915012 1.205
-0.036966152 -0.11934788 1.207
-0.034911558 -0.11954565 1.2090001
-0.03284996 -0.11974339 1.2110001
-0.030781358 -0.11994115 1.2130001
-0.028753011 -0.12033666 1.217
-0.026820041 -0.12122659 1.2260001
-0.11158012 -0.12024654 1.238
-0.10879487 -0.11956663 1.2310001
-0.10638063 -0.11927524 1.228
-0.10363737 -0.11859534 1.2210001
-0.10166677 -0.1187896 1.223
-0.09952642 -0.1187896 1.223
-0.09738607 -0.1187896 1.223
-0.094389044 -0.11772116 1.212
-0.091963433 -0.11733266 1.2080001
-0.089998089 -0.1175269 1.21
-0.087589972 -0.1171384 1.2060001
-0.085337617 -0.11694414 1.2040001
-0.083230518 -0.11694414 1.2040001
-0.081190787 -0.11704126 1.205
-0.07908193 -0.11704126 1.205
-0.076781444 -0.11674987 1.202
-0.074553594 -0.11655562 1.2
-0.072393112 -0.11645848 1.199
-0.07017751 -0.11626422 1.197
-0.068082653 -0.11626422 1.197
-0.065987803 -0.11626422 1.197
-0.063839577 -0.1161671 1.1960001
-0.061694849 -0.11606997 1.1950001
-0.059603497 -0.11606997 1.1950001
-0.057512149 -0.11606997 1.1950001
-0.055420794 -0.11606997 1.1950001
-0.053329445 -0.11606997 1.1950001
-0.051280972 -0.1161671 1.1960001
-0.049270123 -0.11636136 1.1980001
-0.047252279 -0.11655562 1.2
-0.045152176 -0.11655562 1.2
-0.043087952 -0.11665274 1.2010001
-0.041020226 -0.11674987 1.202
-0.038981378 -0.11694414 1.2040001
-0.036904905 -0.11704126 1.205
-0.034853805 -0.11723552 1.207
-0.032795705 -0.11742978 1.2090001
-0.030781358 -0.1178183 1.2130001
-0.028705757 -0.11801256 1.215
-0.026754413 -0.1187896 1.223
-0.11798456 -0.11798456 1.2370001
-0.11563244 -0.1177938 1.235
-0.11347109 -0.1177938 1.235
-0.11085909 -0.1173169 1.23
-0.10817622 -0.11674463 1.2240001
-0.10577422 -0.11645848 1.2210001
-0.10321297 -0.11598159 1.2160001
-0.10125113 -0.11617235 1.2180001
-0.099119522 -0.11617235 1.2180001
-0.097147182 -0.11636309 1.22
-0.093999654 -0.11512317 1.207
-0.091735043 -0.11493241 1.205
-0.089403048 -0.11464627 1.202
-0.08722683 -0.1145509 1.2010001
-0.085124977 -0.1145509 1.2010001
-0.08309225 -0.11464627 1.202
-0.081056029 -0.11474166 1.2030001
-0.078950681 -0.11474166 1.2030001
-0.07671757 -0.1145509 1.2010001
-0.074429341 -0.11426475 1.1980001
-0.072151601 -0.11397862 1.1950001
-0.070001617 -0.11388323 1.194
-0.067855142 -0.11378785 1.1930001
-0.065767296 -0.11378785 1.1930001
-0.063626066 -0.11369248 1.192
-0.061591592 -0.11378785 1.1930001
-0.059503745 -0.11378785 1.1930001
-0.057367764 -0.11369248 1.192
-0.055281661 -0.11369248 1.192
-0.053150937 -0.1135971 1.1910001
-0.051152341 -0.11378785 1.1930001
-0.049146742 -0.11397862 1.1950001
-0.047134146 -0.11416937 1.197
-0.045076922 -0.11426475 1.1980001
-0.042980321 -0.11426475 1.1980001
-0.04088372 -0.11426475 1.1980001
-0.038819492 -0.11436012 1.199
-0.036751769 -0.11445551 1.2
-0.03470942 -0.11464627 1.202
-0.032687198 -0.11493241 1.205
-0.030679855 -0.11531393 1.2090001
-0.028587628 -0.11540931 1.21
-0.026601281 -0.11598159 1.2160001
-0.024593934 -0.11655386 1.222
-0.11817532 -0.11600697 1.2390001
-0.11544518 -0.11544518 1.233
-0.11310358 -0.11525793 1.2310001
-0.11067883 -0.11497705 1.228
-0.10817622 -0.11460253 1.2240001
-0.10568759 -0.114228 1.22
-0.10312809 -0.11375985 1.215
-0.10116799 -0.1139471 1.217
-0.099119522 -0.11404074 1.2180001
-0.097067557 -0.11413438 1.2190001
-0.094233289 -0.1132917 1.21
-0.092039563 -0.11319808 1.2090001
-0.089551821 -0.11272994 1.2040001
-0.087444715 -0.11272994 1.2040001
-0.085266739 -0.11263631 1.2030001
-0.083230518 -0.11272994 1.2040001
-0.081056029 -0.11263631 1.2030001
-0.078885049 -0.11254267 1.202
-0.07671757 -0.11244904 1.2010001
-0.074491456 -0.11226178 1.199
-0.072272353 -0.11207452 1.197
-0.070060246 -0.11188726 1.1950001
-0.067798264 -0.11160637 1.192
-0.065712161 -0.11160637 1.192
-0.063626066 -0.11160637 1.192
-0.061591592 -0.11170001 1.1930001
-0.059503745 -0.11170001 1.1930001
-0.057367764 -0.11160637 1.192
-0.055235289 -0.11151275 1.1910001
-0.053106308 -0.11141912 1.1900001
-0.051109459 -0.11160637 1.192
-0.049105614 -0.11179363 1.194
-0.047134146 -0.11207452 1.197
-0.045039292 -0.11207452 1.197
-0.042980321 -0.11216816 1.1980001
-0.040917847 -0.11226178 1.199
-0.038819492 -0.11226178 1.199
-0.036721144 -0.11226178 1.199
-0.034680545 -0.11244904 1.2010001
-0.032660075 -0.11272994 1.2040001
-0.030705228 -0.1132917 1.21
-0.028634878 -0.11347897 1.212
-0.026645033 -0.11404074 1.2180001
-0.024593934 -0.11441525 1.222
-0.11846146 -0.11411425 1.2420001
-0.11525793 -0.11310358 1.2310001
-0.11264418 -0.11264418 1.2260001
-0.11004793 -0.11218478 1.2210001
-0.10791107 -0.11218478 1.2210001
-0.10551433 -0.11190914 1.2180001
-0.10321297 -0.11172538 1.2160001
-0.10108487 -0.11172538 1.2160001
-0.099038139 -0.11181726 1.217
-0.096828662 -0.11172538 1.2160001
-0.094077535 -0.11099035 1.2080001
-0.091811173 -0.11080659 1.2060001
-0.089403048 -0.11043906 1.202
-0.087372087 -0.11053095 1.2030001
-0.085337617 -0.11062284 1.2040001
-0.08309225 -0.11043906 1.202
-0.080853894 -0.11025532 1.2
-0.078622542 -0.11007155 1.1980001
-0.076525934 -0.11007155 1.1980001
-0.07430508 -0.10988779 1.1960001
-0.07203085 -0.10961216 1.1930001
-0.06976711 -0.10933652 1.1900001
-0.067513876 -0.10906088 1.187
-0.065436527 -0.10906088 1.187
-0.063359179 -0.10906088 1.187
-0.061333455 -0.10915276 1.1880001
-0.059354108 -0.10933652 1.1900001
-0.057175256 -0.10915276 1.1880001
-0.055096157 -0.10915276 1.1880001
-0.052972425 -0.10906088 1.187
-0.051023707 -0.10933652 1.1900001
-0.048982237 -0.1094284 1.1910001
-0.046976641 -0.10961216 1.1930001
-0.044926412 -0.10970403 1.194
-0.042908568 -0.10988779 1.1960001
-0.040849593 -0.10997967 1.197
-0.038722366 -0.10988779 1.1960001
-0.036629267 -0.10988779 1.1960001
-0.034593917 -0.11007155 1.1980001
-0.032578696 -0.1103472 1.2010001
-0.0306291 -0.11089846 1.207
-0.028587628 -0.11117411 1.21
-0.026579404 -0.1116335 1.215
-0.024513431 -0.11190914 1.2180001
-0.11563244 -0.11130974 1.235
-0.1130117 -0.11085909 1.23
-0.11013805 -0.11013805 1.222
-0.10817622 -0.11031832 1.2240001
-0.10551433 -0.10977753 1.2180001
-0.10338273 -0.10977753 1.2180001
-0.10108487 -0.10959728 1.2160001
-0.099200912 -0.10986767 1.2190001
-0.096908294 -0.1096874 1.217
-0.094389044 -0.10923675 1.212
-0.092115685 -0.1090565 1.21
-0.089774944 -0.10878611 1.207
-0.087662593 -0.10878611 1.207
-0.085479371 -0.10869599 1.2060001
-0.08309225 -0.10833547 1.202
-0.080786511 -0.10806508 1.199
-0.078622542 -0.10797495 1.1980001
-0.076525934 -0.10797495 1.1980001
-0.07430508 -0.10779469 1.1960001
-0.071970463 -0.10743417 1.192
-0.069825739 -0.10734405 1.1910001
-0.067684516 -0.10725392 1.1900001
-0.065546781 -0.10716379 1.189
-0.063412555 -0.10707366 1.1880001
-0.061333455 -0.10707366 1.1880001
-0.059254356 -0.10707366 1.1880001
-0.057127129 -0.10698353 1.187
-0.055096157 -0.10707366 1.1880001
-0.052972425 -0.10698353 1.187
-0.051066589 -0.10734405 1.1910001
-0.048982237 -0.10734405 1.1910001
-0.046976641 -0.10752431 1.1930001
-0.044926412 -0.10761443 1.194
-0.04287269 -0.10770456 1.1950001
-0.040815469 -0.10779469 1.1960001
-0.038689986 -0.10770456 1.1950001
-0.036598638 -0.10770456 1.1950001
-0.034565039 -0.10788482 1.197
-0.032578696 -0.10824534 1.2010001
-0.030603725 -0.10869599 1.2060001
-0.028611254 -0.10914663 1.2110001
-0.026623156 -0.1096874 1.217
-0.024593934 -0.11013805 1.222
-0.11817532 -0.1095019 1.2390001
-0.11525793 -0.10879487 1.2310001
-0.11273605 -0.10844135 1.2270001
-0.10986767 -0.10773432 1.2190001
-0.10808783 -0.10808783 1.223
-0.10525444 -0.10738079 1.215
-0.10312809 -0.10738079 1.215
-0.10083549 -0.10720404 1.2130001
-0.098875389 -0.10738079 1.215
-0.096510142 -0.10711566 1.212
-0.094077535 -0.10676214 1.2080001
-0.091887303 -0.10667376 1.207
-0.089700572 -0.10658538 1.2060001
-0.087517343 -0.106497 1.205
-0.085337617 -0.10640863 1.2040001
-0.082884863 -0.10596672 1.199
-0.080517009 -0.10561322 1.1950001
-0.078294396 -0.10543646 1.1930001
-0.076334298 -0.10561322 1.1950001
-0.074056566 -0.10534807 1.192
-0.07172896 -0.10499456 1.1880001
-0.069532603 -0.1048178 1.1860001
-0.06740012 -0.10472942 1.1850001
-0.065326273 -0.10472942 1.1850001
-0.063092291 -0.10446428 1.182
-0.061126944 -0.10464104 1.184
-0.05905484 -0.10464104 1.184
-0.056982744 -0.10464104 1.184
-0.054957025 -0.10472942 1.1850001
-0.052883171 -0.10472942 1.1850001
-0.050937958 -0.10499456 1.1880001
-0.048899978 -0.10508294 1.189
-0.046897888 -0.10525969 1.1910001
-0.044813536 -0.10525969 1.1910001
-0.042765059 -0.10534807 1.192
-0.040713087 -0.10543646 1.1930001
-0.038560484 -0.10525969 1.1910001
-0.036476135 -0.10525969 1.1910001
-0.034420658 -0.10534807 1.192
-0.032470189 -0.10578997 1.197
-0.030451467 -0.10605511 1.2
-0.028493125 -0.10658538 1.2060001
-0.026448149 -0.10685053 1.2090001
-0.024432927 -0.10729243 1.2140001
-0.12053793 -0.1075068 1.2410001
-0.11788917 -0.10707366 1.2360001
-0.11525793 -0.10664051 1.2310001
-0.1130117 -0.10655388 1.23
-0.11031832 -0.10603411 1.2240001
-0.10844135 -0.10629401 1.2270001
-0.1054277 -0.1054277 1.217
-0.10329785 -0.1054277 1.217
-0.10083549 -0.10508119 1.2130001
-0.098875389 -0.10525444 1.215
-0.096510142 -0.10499455 1.212
-0.09431117 -0.10490793 1.2110001
-0.092115685 -0.10482129 1.21
-0.08992371 -0.10473467 1.2090001
-0.087589972 -0.10447479 1.2060001
-0.085266739 -0.1042149 1.2030001
-0.082884863 -0.10386837 1.199
-0.080517009 -0.10352186 1.1950001
-0.078360021 -0.10343523 1.194
-0.07620655 -0.10334861 1.1930001
-0.073994443 -0.10317535 1.1910001
-0.07172896 -0.10291546 1.1880001
-0.069591224 -0.10282882 1.187
-0.067456998 -0.1027422 1.1860001
-0.065381408 -0.1027422 1.1860001
-0.063145667 -0.10248232 1.1830001
-0.061126944 -0.10256894 1.184
-0.05900497 -0.10248232 1.1830001
-0.056982744 -0.10256894 1.184
-0.054957025 -0.10265557 1.1850001
-0.052883171 -0.10265557 1.1850001
-0.050895076 -0.10282882 1.187
-0.048899978 -0.10300208 1.189
-0.046897888 -0.10317535 1.1910001
-0.044851158 -0.10326197 1.192
-0.042765059 -0.10326197 1.192
-0.040713087 -0.10334861 1.1930001
-0.038592856 -0.10326197 1.192
-0.036537383 -0.10334861 1.1930001
-0.034449536 -0.10334861 1.1930001
-0.032497313 -0.10378175 1.1980001
-0.030451467 -0.10395501 1.2
-0.028469495 -0.10438816 1.205
-0.026382521 -0.10447479 1.2060001
-0.024352424 -0.10482129 1.21
-0.022345077 -0.10534108 1.2160001
-0.12024654 -0.10508031 1.238
-0.1173169 -0.10440128 1.23
-0.11488342 -0.10414664 1.2270001
-0.11264418 -0.10406176 1.2260001
-0.11040844 -0.10397688 1.225
-0.10808783 -0.10380712 1.223
-0.10525444 -0.10312809 1.215
-0.10304322 -0.10304322 1.2140001
-0.10075235 -0.10287345 1.212
-0.098712631 -0.10295833 1.2130001
-0.096350886 -0.1027037 1.21
-0.094155416 -0.10261882 1.2090001
-0.091811173 -0.10236418 1.2060001
-0.089626193 -0.1022793 1.205
-0.087299451 -0.10202466 1.202
-0.084983215 -0.10177002 1.199
-0.082677484 -0.10151539 1.1960001
-0.080314867 -0.10117587 1.192
-0.078097515 -0.10100612 1.1900001
-0.075951025 -0.10092123 1.189
-0.073683806 -0.1006666 1.1860001
-0.071547821 -0.10058172 1.1850001
-0.069298089 -0.10032708 1.182
-0.067286365 -0.10041197 1.1830001
-0.06521602 -0.10041197 1.1830001
-0.063092291 -0.10032708 1.182
-0.061075319 -0.10041197 1.1830001
-0.058955088 -0.10032708 1.182
-0.05688649 -0.10032708 1.182
-0.054864269 -0.10041197 1.1830001
-0.05279392 -0.10041197 1.1830001
-0.050766442 -0.10049684 1.184
-0.048776601 -0.1006666 1.1860001
-0.046819128 -0.10092123 1.189
-0.044813536 -0.101091 1.1910001
-0.042729184 -0.101091 1.1910001
-0.040678959 -0.10117587 1.192
-0.038560484 -0.101091 1.1910001
-0.036476135 -0.101091 1.1910001
-0.034391783 -0.101091 1.1910001
-0.032415938 -0.10143051 1.1950001
-0.030375337 -0.10160027 1.197
-0.028351367 -0.10185491 1.2
-0.026273141 -0.10193979 1.2010001
-0.024251793 -0.1022793 1.205
-0.02223482 -0.1027037 1.21
-0.12034367 -0.10299684 1.2390001
-0.1177938 -0.10266432 1.235
-0.11488342 -0.10199929 1.2270001
-0.11264418 -0.10191616 1.2260001
-0.11031832 -0.1017499 1.2240001
-0.10808783 -0.10166677 1.223
-0.10551433 -0.10125113 1.2180001
-0.10338273 -0.10125113 1.2180001
-0.10116799 -0.10116799 1.217
-0.099119522 -0.10125113 1.2180001
-0.09674903 -0.10100174 1.215
-0.094389044 -0.10075235 1.212
-0.091887303 -0.10033671 1.207
-0.089551821 -0.10008733 1.2040001
-0.08722683 -0.099837936 1.2010001
-0.084912345 -0.099588551 1.1980001
-0.082677484 -0.099422291 1.1960001
-0.080314867 -0.099089772 1.192
-0.078097515 -0.098923512 1.1900001
-0.075887159 -0.09875726 1.1880001
-0.073683806 -0.098591007 1.1860001
-0.071547821 -0.098507866 1.1850001
-0.069356717 -0.098341614 1.1830001
-0.06740012 -0.098507866 1.1850001
-0.065326273 -0.098507866 1.1850001
-0.063359179 -0.098674133 1.187
-0.061230201 -0.098591007 1.1860001
-0.05905484 -0.09842474 1.184
-0.056982744 -0.09842474 1.184
-0.054910641 -0.09842474 1.184
-0.052838545 -0.09842474 1.184
-0.050809324 -0.098507866 1.1850001
-0.048817724 -0.098674133 1.187
-0.046897888 -0.099006653 1.1910001
-0.044888787 -0.099172905 1.1930001
-0.042800937 -0.099172905 1.1930001
-0.040678959 -0.099089772 1.192
-0.038592856 -0.099089772 1.192
-0.036568012 -0.099256024 1.194
-0.034507286 -0.099339157 1.1950001
-0.032470189 -0.099505417 1.197
-0.030426089 -0.099671669 1.199
-0.028374992 -0.099837936 1.2010001
-0.026338769 -0.10008733 1.2040001
-0.024312172 -0.10041984 1.2080001
-0.022308325 -0.10091861 1.2140001
-0.11817532 -0.10082848 1.2390001
-0.11525793 -0.10017745 1.2310001
-0.11255229 -0.099689178 1.225
-0.11013805 -0.099445038 1.222
-0.10764594 -0.099119522 1.2180001
-0.10516782 -0.098794013 1.2140001
-0.10304322 -0.098794013 1.2140001
-0.10083549 -0.098712631 1.2130001
-0.098875389 -0.098875389 1.215
-0.096510142 -0.098631248 1.212
-0.094233289 -0.098468497 1.21
-0.09165892 -0.097980224 1.2040001
-0.089328676 -0.097736083 1.2010001
-0.087008946 -0.09749195 1.1980001
-0.084770583 -0.097329192 1.1960001
-0.082470104 -0.097085051 1.1930001
-0.080112733 -0.096759535 1.189
-0.077769376 -0.096434027 1.1850001
-0.075567767 -0.096271262 1.1830001
-0.073435292 -0.096189879 1.182
-0.07136669 -0.096189879 1.182
-0.06923946 -0.096108504 1.1810001
-0.067286365 -0.096271262 1.1830001
-0.065326273 -0.096434027 1.1850001
-0.063359179 -0.096596777 1.187
-0.061230201 -0.096515402 1.1860001
-0.05905484 -0.096352637 1.184
-0.05688649 -0.096189879 1.182
-0.054817893 -0.096189879 1.182
-0.052704666 -0.096108504 1.1810001
-0.050766442 -0.096352637 1.184
-0.048817724 -0.096596777 1.187
-0.046897888 -0.096922293 1.1910001
-0.044813536 -0.096922293 1.1910001
-0.042693306 -0.096840918 1.1900001
-0.040576581 -0.096759535 1.189
-0.038495727 -0.096759535 1.189
-0.036506757 -0.097003669 1.192
-0.034420658 -0.097003669 1.192
-0.03238881 -0.097166426 1.194
-0.030349962 -0.097329192 1.1960001
-0.028327739 -0.097573325 1.199
-0.026295016 -0.097817458 1.202
-0.024231669 -0.097980224 1.2040001
-0.022216447 -0.098387122 1.2090001
-0.11535156 -0.098102726 1.2320001
-0.1130117 -0.097943462 1.23
-0.11004793 -0.097226813 1.2210001
-0.10791107 -0.097226813 1.2210001
-0.1054277 -0.096908294 1.217
-0.10329785 -0.096908294 1.217
-0.10083549 -0.096589774 1.2130001
-0.098794013 -0.096669406 1.2140001
-0.096510142 -0.096510142 1.212
-0.094155416 -0.096271269 1.2090001
-0.091735043 -0.095952749 1.205
-0.089477435 -0.095793493 1.2030001
-0.087154202 -0.095554605 1.2
-0.08484146 -0.095315717 1.197
-0.082400963 -0.094917566 1.192
-0.080112733 -0.094678678 1.189
-0.077835001 -0.094439805 1.1860001
-0.075695522 -0.094360173 1.1850001
-0.073559545 -0.094280541 1.184
-0.07142707 -0.094200917 1.1830001
-0.069298089 -0.094121285 1.182
-0.067343242 -0.094280541 1.184
-0.065381408 -0.094439805 1.1860001
-0.063412555 -0.094599061 1.1880001
-0.061333455 -0.094599061 1.1880001
-0.059204478 -0.094519429 1.187
-0.056982744 -0.094280541 1.184
-0.054864269 -0.094200917 1.1830001
-0.05279392 -0.094200917 1.1830001
-0.050852202 -0.094439805 1.1860001
-0.048899978 -0.094678678 1.189
-0.046976641 -0.094997197 1.1930001
-0.044888787 -0.094997197 1.1930001
-0.042729184 -0.094837949 1.1910001
-0.040610708 -0.094758317 1.1900001
-0.038495727 -0.094678678 1.189
-0.036506757 -0.094917566 1.192
-0.034478411 -0.095076822 1.194
-0.032415938 -0.095156454 1.1950001
-0.030349962 -0.095236085 1.1960001
-0.028327739 -0.095474973 1.199
-0.026316892 -0.095793493 1.2030001
-0.02427192 -0.096032381 1.2060001
-0.022216447 -0.096271269 1.2090001
-0.020216975 -0.096828662 1.2160001
-0.1182707 -0.09656965 1.24
-0.11535156 -0.095946625 1.2320001
-0.11255229 -0.095401466 1.225
-0.10977753 -0.094856322 1.2180001
-0.10755755 -0.094778441 1.217
-0.10499455 -0.094389044 1.212
-0.10278858 -0.09431117 1.2110001
-0.10050297 -0.094155416 1.2090001
-0.098549873 -0.09431117 1.2110001
-0.096350886 -0.094233289 1.21
-0.094077535 -0.094077535 1.2080001
-0.09165892 -0.093766026 1.2040001
-0.089403048 -0.093610257 1.202
-0.087008946 -0.093298748 1.1980001
-0.08462882 -0.092987224 1.194
-0.08226271 -0.092675716 1.1900001
-0.080045357 -0.092519961 1.1880001
-0.077835001 -0.092364199 1.1860001
-0.075759403 -0.092364199 1.1860001
-0.073435292 -0.092052683 1.182
-0.071245931 -0.091896929 1.1800001
-0.069063574 -0.091741174 1.1780001
-0.067172617 -0.09197481 1.1810001
-0.065326273 -0.092286319 1.1850001
-0.063359179 -0.09244208 1.187
-0.06128183 -0.09244208 1.187
-0.059104726 -0.092286319 1.1850001
-0.056934617 -0.092130564 1.1830001
-0.054771516 -0.09197481 1.1810001
-0.052749291 -0.092052683 1.182
-0.050766442 -0.092208438 1.184
-0.048858855 -0.092519961 1.1880001
-0.046897888 -0.092753597 1.1910001
-0.044851158 -0.09283147 1.192
-0.042657427 -0.092597827 1.189
-0.040542454 -0.092519961 1.1880001
-0.038430978 -0.09244208 1.187
-0.036384251 -0.092519961 1.1880001
-0.034362905 -0.092675716 1.1900001
-0.032334555 -0.09283147 1.192
-0.030299207 -0.092987224 1.194
-0.028256863 -0.093142986 1.1960001
-0.026229387 -0.093376614 1.199
-0.024171291 -0.093532383 1.2010001
-0.022161318 -0.093921773 1.2060001
-0.020183723 -0.094544813 1.2140001
-0.11544518 -0.093866646 1.233
-0.1120929 -0.092876971 1.22
-0.10995779 -0.092876971 1.22
-0.10782269 -0.092876971 1.22
-0.10560096 -0.092800848 1.2190001
-0.10295833 -0.092344075 1.2130001
-0.10083549 -0.092344075 1.2130001
-0.098631248 -0.092267938 1.212
-0.096589774 -0.092344075 1.2130001
-0.094233289 -0.092115685 1.21
-0.091735043 -0.091735043 1.205
-0.089328676 -0.09143053 1.2010001
-0.08693631 -0.09112601 1.197
-0.084699705 -0.090973757 1.1950001
-0.082400963 -0.090745367 1.192
-0.080247492 -0.090669252 1.1910001
-0.07816314 -0.090669252 1.1910001
-0.076142661 -0.090745367 1.192
-0.073745921 -0.090364724 1.187
-0.071487442 -0.090136342 1.184
-0.069298089 -0.089984089 1.182
-0.067456998 -0.090288602 1.1860001
-0.065491654 -0.090440862 1.1880001
-0.063412555 -0.090440862 1.1880001
-0.061333455 -0.090440862 1.1880001
-0.0591546 -0.090288602 1.1860001
-0.057078999 -0.090288602 1.1860001
-0.054910641 -0.090136342 1.184
-0.052883171 -0.090212472 1.1850001
-0.050852202 -0.090288602 1.1860001
-0.048941109 -0.090593114 1.1900001
-0.046976641 -0.090821505 1.1930001
-0.044926412 -0.09089762 1.194
-0.042800937 -0.090821505 1.1930001
-0.040644836 -0.090669252 1.1910001
-0.038560484 -0.090669252 1.1910001
-0.036445506 -0.090593114 1.1900001
-0.034391783 -0.090669252 1.1910001
-0.03238881 -0.09089762 1.194
-0.030349962 -0.091049887 1.1960001
-0.028280485 -0.09112601 1.197
-0.026251266 -0.0913544 1.2
-0.024231669 -0.09165892 1.2040001
-0.02219807 -0.091963433 1.2080001
-0.020200348 -0.092496328 1.215
-0.12218913 -0.093568251 1.258
-0.11951062 -0.093196362 1.253
-0.11291982 -0.091411285 1.2290001
-0.11076896 -0.091411285 1.2290001
-0.10764594 -0.090593114 1.2180001
-0.10551433 -0.090593114 1.2180001
-0.10278858 -0.090072468 1.2110001
-0.10066923 -0.090072468 1.2110001
-0.098468497 -0.089998089 1.21
-0.096350886 -0.089998089 1.21
-0.094077535 -0.08984933 1.2080001
-0.09143053 -0.089328676 1.2010001
-0.08903116 -0.08903116 1.197
-0.086718418 -0.088808022 1.194
-0.08462882 -0.088808022 1.194
-0.082470104 -0.088733651 1.1930001
-0.080314867 -0.088659264 1.192
-0.078097515 -0.088510513 1.1900001
-0.075823277 -0.088287376 1.187
-0.073497415 -0.087989867 1.1830001
-0.071306311 -0.087841108 1.1810001
-0.069180831 -0.087766729 1.1800001
-0.067229487 -0.08791548 1.182
-0.065326273 -0.088138625 1.1850001
-0.063199043 -0.088064238 1.184
-0.061178569 -0.088138625 1.1850001
-0.05900497 -0.087989867 1.1830001
-0.056982744 -0.088064238 1.184
-0.054910641 -0.088064238 1.184
-0.052838545 -0.088064238 1.184
-0.050766442 -0.088064238 1.184
-0.048817724 -0.088287376 1.187
-0.046858508 -0.088510513 1.1900001
-0.044813536 -0.088584892 1.1910001
-0.042693306 -0.088510513 1.1900001
-0.040542454 -0.088361755 1.1880001
-0.03846335 -0.088361755 1.1880001
-0.036384251 -0.088361755 1.1880001
-0.034276277 -0.088287376 1.187
-0.032280307 -0.088510513 1.1900001
-0.030273836 -0.088733651 1.1930001
-0.028304113 -0.089105546 1.1980001
-0.026185635 -0.08903116 1.197
-0.024131035 -0.089179918 1.199
-0.022106189 -0.089477435 1.2030001
-0.02011722 -0.089998089 1.21
-0.12518178 -0.091947675 1.266
-0.12228627 -0.091439277 1.2590001
-0.1201783 -0.091511913 1.2600001
-0.10791107 -0.088679403 1.2210001
-0.10603411 -0.088897288 1.2240001
-0.10329785 -0.088388883 1.217
-0.10091861 -0.088170998 1.2140001
-0.098468497 -0.087880477 1.21
-0.096271269 -0.087807857 1.2090001
-0.093921773 -0.087589972 1.2060001
-0.09143053 -0.08722683 1.2010001
-0.089105546 -0.087008946 1.1980001
-0.086863682 -0.086863682 1.1960001
-0.084770583 -0.086863682 1.1960001
-0.082608357 -0.086791053 1.1950001
-0.080314867 -0.086573169 1.192
-0.077966258 -0.086282656 1.1880001
-0.075759403 -0.086137407 1.1860001
-0.073435292 -0.085846886 1.182
-0.071306311 -0.085774265 1.1810001
-0.06923946 -0.085774265 1.1810001
-0.06740012 -0.086064771 1.1850001
-0.065436527 -0.086210027 1.187
-0.063252419 -0.086064771 1.1850001
-0.061230201 -0.086137407 1.1860001
-0.059104726 -0.086064771 1.1850001
-0.057078999 -0.086137407 1.1860001
-0.055049777 -0.086210027 1.187
-0.052972425 -0.086210027 1.187
-0.050895076 -0.086210027 1.187
-0.048817724 -0.086210027 1.187
-0.046897888 -0.086500548 1.1910001
-0.044851158 -0.086573169 1.192
-0.042765059 -0.086573169 1.192
-0.040610708 -0.086427912 1.1900001
-0.038560484 -0.086500548 1.1910001
-0.036445506 -0.086427912 1.1900001
-0.034334026 -0.086355284 1.189
-0.032307431 -0.086500548 1.1910001
-0.030375337 -0.08693631 1.197
-0.028493125 -0.087589972 1.2060001
-0.026316892 -0.087372087 1.2030001
-0.024211543 -0.087372087 1.2030001
-0.022124566 -0.087444715 1.2040001
-0.02011722 -0.087880477 1.21
-0.12749802 -0.089802951 1.2670001
-0.12528066 -0.089802951 1.2670001
-0.12296617 -0.089732073 1.266
-0.1201783 -0.089306802 1.2600001
-0.11076896 -0.087109581 1.2290001
-0.10755755 -0.08625903 1.217
-0.10551433 -0.086329907 1.2180001
-0.10321297 -0.08618816 1.2160001
-0.10083549 -0.08597552 1.2130001
-0.098224349 -0.085550241 1.207
-0.095793493 -0.085266739 1.2030001
-0.093454503 -0.0850541 1.2
-0.09112601 -0.08484146 1.197
-0.088882409 -0.084699705 1.1950001
-0.086718418 -0.08462882 1.194
-0.084487066 -0.084487066 1.192
-0.082331844 -0.084416196 1.1910001
-0.080045357 -0.084203556 1.1880001
-0.077769376 -0.083990924 1.1850001
-0.075567767 -0.083849162 1.1830001
-0.073373161 -0.083707415 1.1810001
-0.071245931 -0.08363653 1.1800001
-0.069180831 -0.08363653 1.1800001
-0.067286365 -0.083849162 1.1830001
-0.065326273 -0.083990924 1.1850001
-0.063199043 -0.083920039 1.184
-0.061075319 -0.083849162 1.1830001
-0.05900497 -0.083849162 1.1830001
-0.056982744 -0.083920039 1.184
-0.054910641 -0.083920039 1.184
-0.05279392 -0.083849162 1.1830001
-0.050723568 -0.083849162 1.1830001
-0.048735473 -0.083990924 1.1850001
-0.046740375 -0.084132679 1.187
-0.044700652 -0.084203556 1.1880001
-0.042621553 -0.084203556 1.1880001
-0.040474202 -0.084061801 1.1860001
-0.038430978 -0.084132679 1.187
-0.036384251 -0.084203556 1.1880001
-0.034305152 -0.084203556 1.1880001
-0.03225318 -0.084274426 1.189
-0.030273836 -0.08455795 1.1930001
-0.028280485 -0.08484146 1.197
-0.026207514 -0.084912345 1.1980001
-0.024151163 -0.0850541 1.2
-0.022124566 -0.085337617 1.2040001
-0.020083968 -0.085621126 1.2080001
-0.12790054 -0.087862104 1.271
-0.12528066 -0.087585598 1.2670001
-0.12277191 -0.087378204 1.2640001
-0.11931988 -0.086479537 1.251
-0.10746918 -0.084060051 1.2160001
-0.1054277 -0.08412917 1.217
-0.10312809 -0.083990917 1.215
-0.10100174 -0.083990917 1.215
-0.098305739 -0.083507024 1.2080001
-0.095873125 -0.083230518 1.2040001
-0.093532383 -0.083023123 1.2010001
-0.091202147 -0.082815744 1.1980001
-0.088808022 -0.082539223 1.194
-0.086645797 -0.082470104 1.1930001
-0.084416196 -0.082331844 1.1910001
-0.08226271 -0.08226271 1.1900001
-0.080045357 -0.082124457 1.1880001
-0.077900626 -0.082055323 1.187
-0.075759403 -0.081986204 1.1860001
-0.073559545 -0.081847943 1.184
-0.07142707 -0.081778817 1.1830001
-0.069356717 -0.081778817 1.1830001
-0.067456998 -0.081986204 1.1860001
-0.065436527 -0.082055323 1.187
-0.063305803 -0.081986204 1.1860001
-0.061126944 -0.081847943 1.184
-0.05905484 -0.081847943 1.184
-0.056982744 -0.081847943 1.184
-0.054864269 -0.081778817 1.1830001
-0.052749291 -0.08170969 1.182
-0.050723568 -0.081778817 1.1830001
-0.048776601 -0.081986204 1.1860001
-0.046819128 -0.082193583 1.189
-0.044813536 -0.082331844 1.1910001
-0.042729184 -0.082331844 1.1910001
-0.040610708 -0.08226271 1.1900001
-0.038560484 -0.082331844 1.1910001
-0.036506757 -0.082400963 1.192
-0.034449536 -0.082470104 1.1930001
-0.032361683 -0.082470104 1.1930001
-0.030324586 -0.082608357 1.1950001
-0.028256863 -0.082677484 1.1960001
-0.026207514 -0.082815744 1.1980001
-0.024211543 -0.083161376 1.2030001
-0.02219807 -0.083507024 1.2080001
-0.02015047 -0.08378353 1.212
-0.12759864 -0.085435614 1.268
-0.12478626 -0.085031345 1.2620001
-0.1223834 -0.084896594 1.2600001
-0.11998753 -0.084761836 1.258
-0.11085909 -0.082875237 1.23
-0.10720404 -0.081729807 1.2130001
-0.10516782 -0.08179719 1.2140001
-0.10287345 -0.081662431 1.212
-0.10091861 -0.08179719 1.2140001
-0.098224349 -0.081325538 1.207
-0.095634237 -0.080921277 1.2010001
-0.093220867 -0.080651753 1.197
-0.09089762 -0.080449626 1.194
-0.088584892 -0.080247492 1.1910001
-0.086427912 -0.080180116 1.1900001
-0.084203556 -0.080045357 1.1880001
-0.082055323 -0.079977974 1.187
-0.07977584 -0.07977584 1.184
-0.077703744 -0.07977584 1.184
-0.075631641 -0.07977584 1.184
-0.073559545 -0.07977584 1.184
-0.071487442 -0.07977584 1.184
-0.069356717 -0.079708464 1.1830001
-0.067286365 -0.079708464 1.1830001
-0.06521602 -0.079708464 1.1830001
-0.063092291 -0.079641081 1.182
-0.060920436 -0.07950633 1.1800001
-0.058905218 -0.079573713 1.1810001
-0.056838367 -0.079573713 1.1810001
-0.054771516 -0.079573713 1.1810001
-0.052615408 -0.079438955 1.179
-0.050637819 -0.079573713 1.1810001
-0.048612092 -0.079641081 1.182
-0.046661623 -0.079843223 1.1850001
-0.044663023 -0.079977974 1.187
-0.042621553 -0.080045357 1.1880001
-0.040508326 -0.079977974 1.187
-0.038430978 -0.079977974 1.187
-0.03641488 -0.080112733 1.189
-0.034391783 -0.080247492 1.1910001
-0.032307431 -0.080247492 1.1910001
-0.030248456 -0.080314867 1.192
-0.028209606 -0.080449626 1.194
-0.026185635 -0.080651753 1.197
-0.024171291 -0.080921277 1.2010001
-0.022161318 -0.08125817 1.2060001
-0.020100595 -0.081460305 1.2090001
-0.018059121 -0.08179719 1.2140001
-0.12769929 -0.083282135 1.2690001
-0.12488513 -0.082888365 1.263
-0.12248053 -0.082757115 1.261
-0.12027366 -0.082757115 1.261
-0.11806681 -0.082757115 1.261
-0.11540056 -0.082428969 1.256
-0.10755755 -0.079869471 1.217
-0.1054277 -0.079869471 1.217
-0.10304322 -0.07967259 1.2140001
-0.10100174 -0.079738215 1.215
-0.098142974 -0.079147562 1.2060001
-0.095634237 -0.078819424 1.2010001
-0.093220867 -0.07855691 1.197
-0.09089762 -0.078360021 1.194
-0.088659264 -0.078228764 1.192
-0.086500548 -0.07816314 1.1910001
-0.084274426 -0.078031883 1.189
-0.082124457 -0.077966258 1.1880001
-0.079843223 -0.077769376 1.1850001
-0.077769376 -0.077769376 1.1850001
-0.075695522 -0.077769376 1.1850001
-0.073621668 -0.077769376 1.1850001
-0.071547821 -0.077769376 1.1850001
-0.069415346 -0.077703744 1.184
-0.067343242 -0.077703744 1.184
-0.06521602 -0.077638119 1.1830001
-0.063092291 -0.077572487 1.182
-0.060972068 -0.077506863 1.1810001
-0.058905218 -0.077506863 1.1810001
-0.056838367 -0.077506863 1.1810001
-0.054771516 -0.077506863 1.1810001
-0.052660037 -0.07744123 1.1800001
-0.050680693 -0.077572487 1.182
-0.048612092 -0.077572487 1.182
-0.046622243 -0.077703744 1.184
-0.044587772 -0.077769376 1.1850001
-0.042621553 -0.077966258 1.1880001
-0.040644836 -0.07816314 1.1910001
-0.038528107 -0.078097515 1.1900001
-0.036476135 -0.07816314 1.1910001
-0.034391783 -0.07816314 1.1910001
-0.032361683 -0.078294396 1.1930001
-0.030324586 -0.078425653 1.1950001
-0.028304113 -0.078622542 1.1980001
-0.026251266 -0.078753792 1.2
-0.024211543 -0.078950681 1.2030001
-0.022142941 -0.07908193 1.205
-0.020083968 -0.079278819 1.2080001
-0.018014494 -0.079475701 1.2110001
-0.12790054 -0.081189036 1.271
-0.12528066 -0.080933526 1.2670001
-0.12267479 -0.080678008 1.263
-0.12036905 -0.080614135 1.2620001
-0.11825407 -0.080678008 1.263
-0.11585995 -0.080550253 1.261
-0.10782269 -0.077931255 1.22
-0.10551433 -0.077803493 1.2180001
-0.10312809 -0.077611856 1.215
-0.10075235 -0.077420227 1.212
-0.097980224 -0.076909207 1.2040001
-0.095315717 -0.07646206 1.197
-0.092909351 -0.07620655 1.1930001
-0.090669252 -0.076078795 1.1910001
-0.088510513 -0.076014914 1.1900001
-0.086355284 -0.075951025 1.189
-0.084132679 -0.075823277 1.187
-0.081847943 -0.075631641 1.184
-0.079641081 -0.075503886 1.182
-0.077572487 -0.075503886 1.182
-0.075503886 -0.075503886 1.182
-0.073497415 -0.075567767 1.1830001
-0.07136669 -0.075503886 1.182
-0.06923946 -0.075440012 1.1810001
-0.067172617 -0.075440012 1.1810001
-0.065050632 -0.075376131 1.1800001
-0.062932156 -0.075312249 1.179
-0.060817182 -0.075248376 1.1780001
-0.058705702 -0.075184494 1.177
-0.056597725 -0.075120613 1.176
-0.054539625 -0.075120613 1.176
-0.052481528 -0.075120613 1.176
-0.050466307 -0.075184494 1.177
-0.048283074 -0.074992865 1.174
-0.0461891 -0.074928984 1.1730001
-0.044173878 -0.074992865 1.174
-0.042334538 -0.075376131 1.1800001
-0.040508326 -0.075823277 1.187
-0.038430978 -0.075823277 1.187
-0.036353625 -0.075823277 1.187
-0.034276277 -0.075823277 1.187
-0.032280307 -0.076014914 1.1900001
-0.030248456 -0.076142661 1.192
-0.028233236 -0.076334298 1.1950001
-0.026185635 -0.07646206 1.197
-0.024131035 -0.076589808 1.199
-0.022051062 -0.076653697 1.2
-0.019984214 -0.076781444 1.202
-0.017925238 -0.076973081 1.205
-0.015908265 -0.077420227 1.212
-0.12830307 -0.079213195 1.2750001
-0.1255773 -0.07890255 1.2700001
-0.12296617 -0.078654036 1.266
-0.12065519 -0.078591913 1.2650001
-0.1183477 -0.078529783 1.2640001
-0.11613559 -0.078529783 1.2640001
-0.11302219 -0.077908501 1.2540001
-0.10826459 -0.076106787 1.225
-0.10568759 -0.07579615 1.22
-0.10312809 -0.075485505 1.215
-0.10091861 -0.07542339 1.2140001
-0.098061599 -0.074864231 1.205
-0.095474973 -0.074491456 1.199
-0.092987224 -0.074180819 1.194
-0.090745367 -0.074056566 1.192
-0.088584892 -0.073994443 1.1910001
-0.086500548 -0.073994443 1.1910001
-0.084203556 -0.073808059 1.1880001
-0.08191707 -0.073621668 1.1850001
-0.079641081 -0.073435292 1.182
-0.077572487 -0.073435292 1.182
-0.075567767 -0.073497415 1.1830001
-0.073435292 -0.073435292 1.182
-0.07136669 -0.073435292 1.182
-0.06923946 -0.073373161 1.1810001
-0.067229487 -0.073435292 1.182
-0.065105766 -0.073373161 1.1810001
-0.062985532 -0.073311031 1.1800001
-0.060868807 -0.0732489 1.179
-0.058805458 -0.0732489 1.179
-0.056693986 -0.073186778 1.1780001
-0.054586004 -0.073124647 1.177
-0.05239227 -0.072938263 1.174
-0.05025192 -0.07281401 1.1720001
-0.048077438 -0.072627619 1.169
-0.045992218 -0.072565503 1.1680001
-0.043948118 -0.072565503 1.1680001
-0.04211928 -0.072938263 1.174
-0.040405948 -0.073559545 1.184
-0.038430978 -0.073745921 1.187
-0.03641488 -0.073870182 1.189
-0.034276277 -0.073745921 1.187
-0.032307431 -0.073994443 1.1910001
-0.030273836 -0.074118696 1.1930001
-0.028280485 -0.074367203 1.197
-0.026185635 -0.074367203 1.197
-0.024131035 -0.074491456 1.199
-0.022051062 -0.074553594 1.2
-0.019984214 -0.074677847 1.202
-0.01795499 -0.074988484 1.207
-0.015921393 -0.075361252 1.2130001
-0.1281018 -0.076861069 1.273
-0.1255773 -0.076679945 1.2700001
-0.12286904 -0.076378055 1.2650001
-0.12065519 -0.076378055 1.2650001
-0.1183477 -0.076317675 1.2640001
-0.11622748 -0.076378055 1.2650001
-0.11347283 -0.076015785 1.2590001
-0.10560096 -0.073600672 1.2190001
-0.10312809 -0.073359154 1.215
-0.10091861 -0.073298782 1.2140001
-0.097980224 -0.072695009 1.2040001
-0.095315717 -0.072272353 1.197
-0.092909351 -0.07203085 1.1930001
-0.090593114 -0.071849711 1.1900001
-0.088361755 -0.07172896 1.1880001
-0.086282656 -0.07172896 1.1880001
-0.084061801 -0.071608201 1.1860001
-0.081778817 -0.07142707 1.1830001
-0.07950633 -0.071245931 1.1800001
-0.07744123 -0.071245931 1.1800001
-0.075440012 -0.071306311 1.1810001
-0.073311031 -0.071245931 1.1800001
-0.07112518 -0.07112518 1.1780001
-0.069063574 -0.07112518 1.1780001
-0.067058854 -0.071185552 1.179
-0.064940378 -0.07112518 1.1780001
-0.062825404 -0.0710648 1.177
-0.060713924 -0.071004413 1.176
-0.058705702 -0.0710648 1.177
-0.056597725 -0.071004413 1.176
-0.0544005 -0.070823289 1.1730001
-0.052124511 -0.070521399 1.1680001
-0.049866032 -0.070219509 1.1630001
-0.047707301 -0.070038378 1.1600001
-0.045677204 -0.070038378 1.1600001
-0.043684728 -0.07009875 1.161
-0.04179639 -0.070340261 1.1650001
-0.040098809 -0.070944041 1.1750001
-0.038236719 -0.071306311 1.1810001
-0.036323 -0.071608201 1.1860001
-0.034218524 -0.071547821 1.1850001
-0.03225318 -0.071789332 1.189
-0.030223081 -0.071910091 1.1910001
-0.028185984 -0.07203085 1.1930001
-0.026120007 -0.072091222 1.194
-0.024050534 -0.072151601 1.1950001
-0.022014311 -0.072332732 1.1980001
-0.019967588 -0.072513871 1.2010001
-0.01795499 -0.072876133 1.207
-0.015921393 -0.073238403 1.2130001
-0.12800117 -0.074574597 1.2720001
-0.1255773 -0.07445734 1.2700001
-0.1230633 -0.074281454 1.2670001
-0.12084595 -0.074281454 1.2670001
-0.11853496 -0.074222818 1.266
-0.11631936 -0.074222818 1.266
-0.11374323 -0.073988318 1.2620001
-0.10586084 -0.071643196 1.222
-0.10329785 -0.07135006 1.217
-0.10125113 -0.071408689 1.2180001
-0.098387122 -0.070881039 1.2090001
-0.095554605 -0.070353389 1.2
-0.093065105 -0.070060246 1.1950001
-0.090669252 -0.069825739 1.1910001
-0.088436134 -0.069708481 1.189
-0.086355284 -0.069708481 1.189
-0.084132679 -0.069591224 1.187
-0.08191707 -0.069473974 1.1850001
-0.079573713 -0.06923946 1.1810001
-0.07744123 -0.069180831 1.1800001
-0.075376131 -0.069180831 1.1800001
-0.073186778 -0.069063574 1.1780001
-0.07112518 -0.069063574 1.1780001
-0.069063574 -0.069063574 1.1780001
-0.067115732 -0.069180831 1.1800001
-0.064995505 -0.069122203 1.179
-0.062878788 -0.069063574 1.1780001
-0.060817182 -0.069063574 1.1780001
-0.05875558 -0.069063574 1.1780001
-0.056645852 -0.069004945 1.177
-0.054307736 -0.068653181 1.171
-0.051990632 -0.068301417 1.1650001
-0.049737398 -0.068008281 1.1600001
-0.047666173 -0.067949645 1.159
-0.045677204 -0.068008281 1.1600001
-0.043684728 -0.068066902 1.161
-0.041760512 -0.068242781 1.164
-0.039928176 -0.06859456 1.1700001
-0.038139589 -0.069063574 1.1780001
-0.036292374 -0.069473974 1.1850001
-0.034218524 -0.069473974 1.1850001
-0.03225318 -0.069708481 1.189
-0.030223081 -0.069825739 1.1910001
-0.028209606 -0.070001617 1.194
-0.026141886 -0.070060246 1.1950001
-0.024070662 -0.070118874 1.1960001
-0.022051062 -0.070353389 1.2
-0.02000084 -0.070529275 1.2030001
-0.017969865 -0.07082241 1.2080001
-0.015921393 -0.071115553 1.2130001
-0.12769929 -0.07217785 1.2690001
-0.12547842 -0.07217785 1.2690001
-0.12296617 -0.072007217 1.266
-0.12084595 -0.072064094 1.2670001
-0.1183477 -0.071893461 1.2640001
-0.11613559 -0.071893461 1.2640001
-0.11356298 -0.071665958 1.2600001
-0.10603411 -0.069618352 1.2240001
-0.10346761 -0.069333971 1.2190001
-0.10116799 -0.069220208 1.217
-0.098305739 -0.068708308 1.2080001
-0.095395349 -0.068139531 1.1980001
-0.092909351 -0.067855142 1.1930001
-0.090593114 -0.067684516 1.1900001
-0.088361755 -0.067570761 1.1880001
-0.086210027 -0.067513876 1.187
-0.083990924 -0.06740012 1.1850001
-0.081847943 -0.067343242 1.184
-0.079573713 -0.067172617 1.1810001
-0.07744123 -0.067115732 1.1800001
-0.075312249 -0.067058854 1.179
-0.073186778 -0.067001984 1.1780001
-0.07112518 -0.067001984 1.1780001
-0.069004945 -0.066945098 1.177
-0.067001984 -0.067001984 1.1780001
-0.064885251 -0.066945098 1.177
-0.062825404 -0.066945098 1.177
-0.06076555 -0.066945098 1.177
-0.058556069 -0.066774465 1.174
-0.056405213 -0.06666071 1.1720001
-0.054168612 -0.066433199 1.1680001
-0.051990632 -0.066262566 1.1650001
-0.049780272 -0.066035055 1.161
-0.047666173 -0.065921299 1.159
-0.045598447 -0.065864421 1.1580001
-0.043609474 -0.065921299 1.159
-0.041688759 -0.06609194 1.1620001
-0.039894044 -0.066490076 1.169
-0.038010079 -0.066774465 1.174
-0.036108613 -0.067058854 1.179
-0.034131892 -0.067229487 1.182
-0.032144673 -0.06740012 1.1850001
-0.030121574 -0.067513876 1.187
-0.028091477 -0.067627631 1.189
-0.026054382 -0.067741394 1.1910001
-0.024030406 -0.06791202 1.194
-0.021995934 -0.068082653 1.197
-0.019950962 -0.068253286 1.2
-0.017910363 -0.068480805 1.2040001
-0.015895141 -0.068878941 1.2110001
-0.12800117 -0.070122376 1.2720001
-0.1255773 -0.07001213 1.2700001
-0.12316043 -0.069901869 1.268
-0.12094133 -0.069901869 1.268
-0.11844134 -0.069736488 1.2650001
-0.11595184 -0.0695711 1.2620001
-0.11338271 -0.069350585 1.258
-0.10372224 -0.067365989 1.222
-0.10116799 -0.067090355 1.217
-0.098387122 -0.06664934 1.2090001
-0.095474973 -0.066098057 1.199
-0.092987224 -0.065822415 1.194
-0.090669252 -0.065657042 1.1910001
