# .PCD v0.7 - Point Cloud Data file format
VERSION 0.7
FIELDS x y z
SIZE 4 4 4
TYPE F F F
COUNT 1 1 1
WIDTH 1416
HEIGHT 1
VIEWPOINT 0 0 0 1 0 0 0
POINTS 1416
DATA ascii
-0.071936347 -0.099851936 1.2270001
-0.069959618 -0.10009607 1.23
-0.068027526 -0.10042159 1.2340001
-0.065814547 -0.10034021 1.233
-0.063656688 -0.10034021 1.233
-0.061349202 -0.10009607 1.23
-0.059196599 -0.10009607 1.23
-0.056997627 -0.1000147 1.2290001
-0.054802138 -0.099933311 1.228
-0.052653033 -0.099933311 1.228
-0.050545063 -0.1000147 1.2290001
-0.048551712 -0.10034021 1.233
-0.046431489 -0.10042159 1.2340001
-0.044307761 -0.10050297 1.235
-0.042214658 -0.10066573 1.2370001
-0.040244061 -0.10115399 1.243
-0.10985541 -0.098978646 1.243
-0.10759343 -0.098899022 1.2420001
-0.10508031 -0.098580502 1.238
-0.10266432 -0.098341607 1.235
-0.10034021 -0.09818235 1.233
-0.098102726 -0.098102726 1.2320001
-0.095790863 -0.097943462 1.23
-0.093562134 -0.097863838 1.2290001
-0.091411285 -0.097863838 1.2290001
-0.089260422 -0.097863838 1.2290001
-0.086967818 -0.097704589 1.2270001
-0.084889583 -0.097784206 1.228
-0.08267311 -0.097704589 1.2270001
-0.080657013 -0.097863838 1.2290001
-0.078378402 -0.097704589 1.2270001
-0.075982533 -0.09738607 1.223
-0.067586511 -0.097624958 1.2260001
-0.065814547 -0.09818235 1.233
-0.063863203 -0.09850087 1.2370001
-0.061448961 -0.098102726 1.2320001
-0.059148472 -0.097863838 1.2290001
-0.056858491 -0.097624958 1.2260001
-0.054712888 -0.097624958 1.2260001
-0.052695915 -0.097863838 1.2290001
-0.050627314 -0.098023094 1.2310001
-0.048551712 -0.09818235 1.233
-0.046469111 -0.098341607 1.235
-0.044343635 -0.098421238 1.2360001
-0.042248785 -0.098580502 1.238
-0.040211689 -0.098899022 1.2420001
-0.11194064 -0.096725412 1.2420001
-0.10932515 -0.096336022 1.2370001
-0.10707366 -0.096258134 1.2360001
-0.10448616 -0.095868744 1.2310001
-0.10208242 -0.095635109 1.228
-0.099689178 -0.095401466 1.225
-0.097784206 -0.095635109 1.228
-0.095557235 -0.095557235 1.2270001
-0.093333744 -0.095479347 1.2260001
-0.091188148 -0.095479347 1.2260001
-0.088969909 -0.095401466 1.225
-0.086755179 -0.0953236 1.2240001
-0.084543951 -0.095245719 1.223
-0.082336217 -0.095167831 1.222
-0.080131985 -0.095089957 1.2210001
-0.077484109 -0.094466932 1.2130001
-0.074802108 -0.093766026 1.2040001
-0.072332732 -0.093298748 1.1980001
-0.070060246 -0.093065105 1.1950001
-0.068025775 -0.093142986 1.1960001
-0.066373698 -0.093766026 1.2040001
-0.06334693 -0.095557235 1.2270001
-0.061199572 -0.095557235 1.2270001
-0.058955964 -0.095401466 1.225
-0.056765731 -0.0953236 1.2240001
-0.054712888 -0.095479347 1.2260001
-0.052653033 -0.095635109 1.228
-0.050545063 -0.09571299 1.2290001
-0.048472963 -0.095868744 1.2310001
-0.046318606 -0.095868744 1.2310001
-0.044236004 -0.096024506 1.233
-0.04211228 -0.096102379 1.2340001
-0.040082179 -0.096413895 1.238
-0.11383861 -0.094323419 1.2390001
-0.11139987 -0.094095036 1.2360001
-0.10879487 -0.093714394 1.2310001
-0.10655388 -0.093638256 1.23
-0.10414664 -0.093409881 1.2270001
-0.10183302 -0.093257613 1.225
-0.09952642 -0.093105353 1.223
-0.09738607 -0.093105353 1.223
-0.095167831 -0.093029231 1.222
-0.092876971 -0.092876971 1.22
-0.090741873 -0.092876971 1.22
-0.088534147 -0.092800848 1.2190001
-0.086400792 -0.092800848 1.2190001
-0.084267437 -0.092800848 1.2190001
-0.081999324 -0.092648581 1.217
-0.079410069 -0.092115685 1.21
-0.076589808 -0.09127827 1.199
-0.074118696 -0.090821505 1.1930001
-0.07172896 -0.090440862 1.1880001
-0.069591224 -0.090364724 1.187
-0.067456998 -0.090288602 1.1860001
-0.065712161 -0.090745367 1.192
-0.063999705 -0.09127827 1.199
-0.062572517 -0.092267938 1.212
-0.060750674 -0.092724718 1.2180001
-0.058715325 -0.092876971 1.22
-0.056626603 -0.092953101 1.2210001
-0.054623634 -0.093181491 1.2240001
-0.052610163 -0.093409881 1.2270001
-0.050462808 -0.093409881 1.2270001
-0.048354831 -0.093486004 1.228
-0.046205726 -0.093486004 1.228
-0.044056624 -0.093486004 1.228
-0.04197577 -0.093638256 1.23
-0.039920297 -0.093866646 1.233
-0.11572608 -0.091931932 1.2360001
-0.11319546 -0.091634415 1.2320001
-0.11094922 -0.091560036 1.2310001
-0.10852973 -0.091336899 1.228
-0.10594748 -0.090965003 1.223
-0.10346761 -0.090667494 1.2190001
-0.10108487 -0.090444356 1.2160001
-0.098956764 -0.090444356 1.2160001
-0.096669406 -0.090295605 1.2140001
-0.094466932 -0.090221219 1.2130001
-0.092191823 -0.090072468 1.2110001
-0.090072468 -0.090072468 1.2110001
-0.087880477 -0.089998089 1.21
-0.085833758 -0.090072468 1.2110001
-0.083645277 -0.089998089 1.21
-0.08125817 -0.089700572 1.2060001
-0.078622542 -0.089105546 1.1980001
-0.07620655 -0.088733651 1.1930001
-0.073994443 -0.088584892 1.1910001
-0.071547821 -0.088138625 1.1850001
-0.069415346 -0.088064238 1.184
-0.067343242 -0.088064238 1.184
-0.065546781 -0.088436134 1.189
-0.063626066 -0.088659264 1.192
-0.061901353 -0.089179918 1.199
-0.060152147 -0.089700572 1.2060001
-0.058234055 -0.089998089 1.21
-0.056162834 -0.090072468 1.2110001
-0.054043479 -0.090072468 1.2110001
-0.052009881 -0.090221219 1.2130001
-0.049887028 -0.090221219 1.2130001
-0.047882307 -0.090444356 1.2160001
-0.045791831 -0.090518728 1.217
-0.043733735 -0.090667494 1.2190001
-0.041668635 -0.090816252 1.2210001
-0.039628908 -0.091039389 1.2240001
-0.037609313 -0.091336899 1.228
-0.11525793 -0.089405678 1.2310001
-0.1130117 -0.08933305 1.23
-0.11076896 -0.089260422 1.2290001
-0.10835297 -0.089042537 1.2260001
-0.10577422 -0.088679403 1.2210001
-0.10329785 -0.088388883 1.217
-0.10100174 -0.088243626 1.215
-0.098875389 -0.088243626 1.215
-0.096589774 -0.08809837 1.2130001
-0.094389044 -0.088025734 1.212
-0.092191823 -0.087953113 1.2110001
-0.090072468 -0.087953113 1.2110001
-0.087880477 -0.087880477 1.21
-0.085762881 -0.087880477 1.21
-0.083437897 -0.087662593 1.207
-0.080921277 -0.08722683 1.2010001
-0.078425653 -0.086791053 1.1950001
-0.076334298 -0.086791053 1.1950001
-0.07430508 -0.086863682 1.1960001
-0.071668573 -0.086210027 1.187
-0.069532603 -0.086137407 1.1860001
-0.067456998 -0.086137407 1.1860001
-0.065767296 -0.086645797 1.1930001
-0.063732818 -0.086718418 1.194
-0.061694849 -0.086791053 1.1950001
-0.059852883 -0.087154202 1.2
-0.058041546 -0.087589972 1.2060001
-0.056070078 -0.087807857 1.2090001
-0.053864967 -0.087662593 1.207
-0.051795494 -0.087735228 1.2080001
-0.049681395 -0.087735228 1.2080001
-0.047685422 -0.087953113 1.2110001
-0.045678951 -0.088170998 1.2140001
-0.043661974 -0.088388883 1.217
-0.04160038 -0.088534147 1.2190001
-0.039531779 -0.088679403 1.2210001
-0.037456177 -0.088824652 1.223
-0.035489086 -0.089260422 1.2290001
-0.13104631 -0.090724371 1.2800001
-0.11478978 -0.086896941 1.2260001
-0.11255229 -0.086826049 1.225
-0.11022818 -0.086684301 1.223
-0.10791107 -0.086542547 1.2210001
-0.1054277 -0.08625903 1.217
-0.10304322 -0.086046398 1.2140001
-0.10066923 -0.085833758 1.2110001
-0.098468497 -0.085762881 1.21
-0.096271269 -0.085692003 1.2090001
-0.094077535 -0.085621126 1.2080001
-0.091887303 -0.085550241 1.207
-0.089700572 -0.085479371 1.2060001
-0.087589972 -0.085479371 1.2060001
-0.085550241 -0.085550241 1.207
-0.083230518 -0.085337617 1.2040001
-0.080786511 -0.084983215 1.199
-0.078294396 -0.08455795 1.1930001
-0.07646206 -0.08484146 1.197
-0.074429341 -0.084912345 1.1980001
-0.071910091 -0.084416196 1.1910001
-0.06964986 -0.084203556 1.1880001
-0.067684516 -0.084345318 1.1900001
-0.065932676 -0.084770583 1.1960001
-0.063839577 -0.084770583 1.1960001
-0.061643217 -0.08462882 1.194
-0.059753127 -0.084912345 1.1980001
-0.057897162 -0.085266739 1.2030001
-0.055884566 -0.085408486 1.205
-0.053686462 -0.085266739 1.2030001
-0.051581111 -0.085266739 1.2030001
-0.049516886 -0.085337617 1.2040001
-0.04748854 -0.085479371 1.2060001
-0.045453191 -0.085621126 1.2080001
-0.043410841 -0.085762881 1.21
-0.041361492 -0.085904635 1.212
-0.039305143 -0.086046398 1.2140001
-0.037180543 -0.086046398 1.2140001
-0.035200324 -0.086400792 1.2190001
-0.033283979 -0.086967818 1.2270001
-0.13084157 -0.088346004 1.2780001
-0.11507067 -0.084958717 1.2290001
-0.11264418 -0.08475133 1.2260001
-0.11013805 -0.084474817 1.222
-0.10782269 -0.084336564 1.22
-0.10534108 -0.084060051 1.2160001
-0.10287345 -0.08378353 1.212
-0.10050297 -0.083576158 1.2090001
-0.098305739 -0.083507024 1.2080001
-0.096271269 -0.083576158 1.2090001
-0.093999654 -0.083437897 1.207
-0.091887303 -0.083437897 1.207
-0.089700572 -0.083368771 1.2060001
-0.087662593 -0.083437897 1.207
-0.085692003 -0.083576158 1.2090001
-0.083299637 -0.083299637 1.205
-0.080853894 -0.082953997 1.2
-0.078425653 -0.082608357 1.1950001
-0.07646206 -0.08274661 1.197
-0.074180819 -0.082539223 1.194
-0.071849711 -0.08226271 1.1900001
-0.069708481 -0.082193583 1.189
-0.067684516 -0.08226271 1.1900001
-0.065767296 -0.082470104 1.1930001
-0.063892946 -0.08274661 1.197
-0.061849732 -0.082815744 1.1980001
-0.059952635 -0.08309225 1.202
-0.057993416 -0.083299637 1.205
-0.055977318 -0.083437897 1.207
-0.053775713 -0.083299637 1.205
-0.051623989 -0.083230518 1.2040001
-0.049558014 -0.083299637 1.205
-0.04748854 -0.083368771 1.2060001
-0.045415562 -0.083437897 1.207
-0.043339089 -0.083507024 1.2080001
-0.041293241 -0.083645277 1.21
-0.039272767 -0.083852664 1.2130001
-0.037180543 -0.08392179 1.2140001
-0.035171442 -0.084198311 1.2180001
-0.033256851 -0.08475133 1.2260001
-0.11769842 -0.083144754 1.2340001
-0.11488342 -0.08267311 1.2270001
-0.11236854 -0.082403593 1.223
-0.10977753 -0.0820667 1.2180001
-0.10738079 -0.081864566 1.215
-0.10499455 -0.081662431 1.212
-0.10261882 -0.081460305 1.2090001
-0.10033671 -0.081325538 1.207
-0.098061599 -0.081190787 1.205
-0.096032381 -0.08125817 1.2060001
-0.093688145 -0.081056029 1.2030001
-0.091582783 -0.081056029 1.2030001
-0.089328676 -0.080921277 1.2010001
-0.087299451 -0.080988646 1.202
-0.085266739 -0.081056029 1.2030001
-0.082884863 -0.080786511 1.199
-0.080517009 -0.080517009 1.1950001
-0.078097515 -0.080180116 1.1900001
-0.075951025 -0.080112733 1.189
-0.073621668 -0.079843223 1.1850001
-0.07142707 -0.079708464 1.1830001
-0.069356717 -0.079708464 1.1830001
-0.067343242 -0.07977584 1.184
-0.065326273 -0.079843223 1.1850001
-0.063465931 -0.080112733 1.189
-0.061643217 -0.080449626 1.194
-0.059753127 -0.080719136 1.1980001
-0.057752781 -0.080853894 1.2
-0.055699058 -0.080921277 1.2010001
-0.053552579 -0.080853894 1.2
-0.05145248 -0.080853894 1.2
-0.049475759 -0.081056029 1.2030001
-0.047409784 -0.081123412 1.2040001
-0.045302682 -0.081123412 1.2040001
-0.043195583 -0.081123412 1.2040001
-0.041122608 -0.081190787 1.205
-0.039175637 -0.08152768 1.21
-0.037149914 -0.081729807 1.2130001
-0.035142567 -0.081999324 1.217
-0.033094093 -0.082201459 1.22
-0.13307817 -0.083872795 1.2780001
-0.1173169 -0.080722637 1.23
-0.11469615 -0.080394492 1.225
-0.11218478 -0.080131985 1.2210001
-0.10977753 -0.079935104 1.2180001
-0.10729243 -0.07967259 1.2140001
-0.10482129 -0.079410069 1.21
-0.10244906 -0.079213187 1.207
-0.10025358 -0.079147562 1.2060001
-0.098061599 -0.07908193 1.205
-0.095952749 -0.07908193 1.205
-0.093610257 -0.078885049 1.202
-0.09143053 -0.078819424 1.2010001
-0.089254305 -0.078753792 1.2
-0.08722683 -0.078819424 1.2010001
-0.084983215 -0.078688167 1.199
-0.082608357 -0.078425653 1.1950001
-0.080180116 -0.078097515 1.1900001
-0.077900626 -0.077900626 1.187
-0.075695522 -0.077769376 1.1850001
-0.073435292 -0.077572487 1.182
-0.071185552 -0.077375598 1.179
-0.06923946 -0.077506863 1.1810001
-0.067172617 -0.077506863 1.1810001
-0.06521602 -0.077638119 1.1830001
-0.063199043 -0.077703744 1.184
-0.06138508 -0.078031883 1.189
-0.059553616 -0.078360021 1.194
-0.057608396 -0.07855691 1.197
-0.055606302 -0.078688167 1.199
-0.053597208 -0.078819424 1.2010001
-0.051538233 -0.078885049 1.202
-0.049558014 -0.07908193 1.205
-0.04744916 -0.07908193 1.205
-0.045340311 -0.07908193 1.205
-0.043231457 -0.07908193 1.205
-0.041190859 -0.079213187 1.207
-0.039208014 -0.079475701 1.2110001
-0.037211169 -0.079738215 1.215
-0.035200324 -0.080000736 1.2190001
-0.033094093 -0.080066353 1.22
-0.13328642 -0.081763946 1.2800001
-0.11712614 -0.078442276 1.228
-0.11432163 -0.077995129 1.2210001
-0.11154163 -0.07754799 1.2140001
-0.10932689 -0.077484109 1.2130001
-0.10702728 -0.077356353 1.2110001
-0.10473467 -0.077228598 1.2090001
-0.1022793 -0.076973081 1.205
-0.10008733 -0.076909207 1.2040001
-0.097817458 -0.076781444 1.202
-0.095634237 -0.07671757 1.2010001
-0.093376614 -0.076589808 1.199
-0.091202147 -0.076525934 1.1980001
-0.08903116 -0.07646206 1.197
-0.086791053 -0.076334298 1.1950001
-0.084345318 -0.076014914 1.1900001
-0.08191707 -0.075695522 1.1850001
-0.079708464 -0.075567767 1.1830001
-0.077572487 -0.075503886 1.182
-0.075376131 -0.075376131 1.1800001
-0.0732489 -0.075312249 1.179
-0.071004413 -0.075120613 1.176
-0.069063574 -0.075248376 1.1780001
-0.066945098 -0.075184494 1.177
-0.064995505 -0.075312249 1.179
-0.062825404 -0.075184494 1.177
-0.060972068 -0.075440012 1.1810001
-0.05900497 -0.075567767 1.1830001
-0.057078999 -0.075759403 1.1860001
-0.055142529 -0.075951025 1.189
-0.053240187 -0.07620655 1.1930001
-0.051323846 -0.07646206 1.197
-0.049434628 -0.076781444 1.202
-0.047291655 -0.07671757 1.2010001
-0.045265056 -0.076845333 1.2030001
-0.043159705 -0.076845333 1.2030001
-0.041156735 -0.077036969 1.2060001
-0.039143264 -0.077228598 1.2090001
-0.037088662 -0.077356353 1.2110001
-0.035055939 -0.07754799 1.2140001
-0.03298559 -0.077675745 1.2160001
-0.031035122 -0.078122891 1.223
-0.13359882 -0.079710223 1.2830001
-0.11722153 -0.076355301 1.2290001
-0.114228 -0.07579615 1.22
-0.11144974 -0.075361252 1.2130001
-0.10932689 -0.075361252 1.2130001
-0.10711566 -0.075299129 1.212
-0.10482129 -0.075174868 1.21
-0.10236418 -0.074926361 1.2060001
-0.10008733 -0.074802108 1.2040001
-0.097817458 -0.074677847 1.202
-0.095634237 -0.074615717 1.2010001
-0.093376614 -0.074491456 1.199
-0.09112601 -0.074367203 1.197
-0.088882409 -0.074242949 1.1950001
-0.086427912 -0.073932312 1.1900001
-0.084061801 -0.073683806 1.1860001
-0.081778817 -0.073497415 1.1830001
-0.079641081 -0.073435292 1.182
-0.077572487 -0.073435292 1.182
-0.075440012 -0.073373161 1.1810001
-0.073311031 -0.073311031 1.1800001
-0.0710648 -0.073124647 1.177
-0.069063574 -0.073186778 1.1780001
-0.066888221 -0.073062517 1.176
-0.064995505 -0.0732489 1.179
-0.062932156 -0.0732489 1.179
-0.061023686 -0.073435292 1.182
-0.058905218 -0.073373161 1.1810001
-0.056934617 -0.073497415 1.1830001
-0.055003401 -0.073683806 1.1860001
-0.053150937 -0.073994443 1.1910001
-0.051238094 -0.074242949 1.1950001
-0.04931125 -0.074491456 1.199
-0.047252279 -0.074553594 1.2
-0.045227427 -0.074677847 1.202
-0.043159705 -0.07473997 1.2030001
-0.041156735 -0.074926361 1.2060001
-0.039078508 -0.074988484 1.207
-0.037027407 -0.075112745 1.2090001
-0.034969307 -0.075236998 1.2110001
-0.033012714 -0.075609758 1.217
-0.031060496 -0.076044664 1.2240001
-0.11722153 -0.074204452 1.2290001
-0.11413438 -0.073600672 1.2190001
-0.11135786 -0.073178023 1.212
-0.1090565 -0.073057272 1.21
-0.10685053 -0.072996892 1.2090001
-0.10473467 -0.072996892 1.2090001
-0.1022793 -0.072755381 1.205
-0.10000419 -0.072634622 1.2030001
-0.097654708 -0.072453491 1.2
-0.095554605 -0.072453491 1.2
-0.093220867 -0.072272353 1.197
-0.09089762 -0.072091222 1.194
-0.088584892 -0.071910091 1.1910001
-0.086210027 -0.071668573 1.187
-0.083920039 -0.071487442 1.184
-0.08170969 -0.07136669 1.182
-0.079573713 -0.071306311 1.1810001
-0.077309974 -0.07112518 1.1780001
-0.075248376 -0.07112518 1.1780001
-0.073062517 -0.071004413 1.176
-0.070944041 -0.070944041 1.1750001
-0.068770438 -0.070823289 1.1730001
-0.06666071 -0.07076291 1.1720001
-0.06477499 -0.070944041 1.1750001
-0.062772021 -0.071004413 1.176
-0.060868807 -0.071185552 1.179
-0.05875558 -0.07112518 1.1780001
-0.056742106 -0.071185552 1.179
-0.054817893 -0.07136669 1.182
-0.052883171 -0.071547821 1.1850001
-0.051023707 -0.071849711 1.1900001
-0.049064487 -0.07203085 1.1930001
-0.04709477 -0.072211981 1.1960001
-0.045076922 -0.072332732 1.1980001
-0.043016195 -0.072393112 1.199
-0.041054353 -0.072634622 1.2030001
-0.038981378 -0.072695009 1.2040001
-0.036935531 -0.072815761 1.2060001
-0.03488268 -0.072936513 1.2080001
-0.032904208 -0.073238403 1.2130001
-0.030984366 -0.073721431 1.2210001
-0.11722153 -0.072053596 1.2290001
-0.114228 -0.071525946 1.22
-0.11154163 -0.071174182 1.2140001
-0.10914663 -0.070998296 1.2110001
-0.1069389 -0.07093966 1.21
-0.10482129 -0.07093966 1.21
-0.10244906 -0.070763782 1.207
-0.10025358 -0.07070516 1.2060001
-0.097898841 -0.070529275 1.2030001
-0.095634237 -0.070412017 1.2010001
-0.093220867 -0.07017751 1.197
-0.09089762 -0.070001617 1.194
-0.088436134 -0.069708481 1.189
-0.086137407 -0.069532603 1.1860001
-0.083920039 -0.069415346 1.184
-0.081847943 -0.069415346 1.184
-0.079641081 -0.069298089 1.182
-0.077375598 -0.069122203 1.179
-0.075056739 -0.068887696 1.1750001
-0.07281401 -0.06871181 1.1720001
-0.070642151 -0.06859456 1.1700001
-0.068535931 -0.068535931 1.169
-0.066490076 -0.068535931 1.169
-0.064499363 -0.06859456 1.1700001
-0.062611893 -0.068770438 1.1730001
-0.060713924 -0.068946317 1.176
-0.058805458 -0.069122203 1.179
-0.056838367 -0.06923946 1.1810001
-0.054864269 -0.069356717 1.1830001
-0.0529278 -0.069532603 1.1860001
-0.050980829 -0.069708481 1.189
-0.04902336 -0.06988436 1.192
-0.04705539 -0.070060246 1.1950001
-0.045076922 -0.070236139 1.1980001
-0.043087952 -0.070412017 1.2010001
-0.041088481 -0.070587903 1.2040001
-0.039013755 -0.070646524 1.205
-0.036966152 -0.070763782 1.207
-0.034911558 -0.070881039 1.2090001
-0.032931339 -0.071174182 1.2140001
-0.030958991 -0.071525946 1.22
-0.114228 -0.069390841 1.22
-0.11154163 -0.069049574 1.2140001
-0.1090565 -0.068822064 1.21
-0.10676214 -0.068708308 1.2080001
-0.10456141 -0.06865143 1.207
-0.10219443 -0.068480805 1.2040001
-0.10000419 -0.068423927 1.2030001
-0.097654708 -0.068253286 1.2
-0.095315717 -0.068082653 1.197
-0.092909351 -0.067855142 1.1930001
-0.090669252 -0.067741394 1.1910001
-0.088361755 -0.067570761 1.1880001
-0.086137407 -0.067456998 1.1860001
-0.083778284 -0.067229487 1.182
-0.08157143 -0.067115732 1.1800001
-0.079304196 -0.066945098 1.177
-0.07704746 -0.066774465 1.174
-0.074737348 -0.066546954 1.1700001
-0.072565503 -0.066433199 1.1680001
-0.070521399 -0.066433199 1.1680001
-0.068477303 -0.066433199 1.1680001
-0.066376321 -0.066376321 1.1670001
-0.064223722 -0.066262566 1.1650001
-0.062238246 -0.066319443 1.166
-0.060404163 -0.066546954 1.1700001
-0.05860595 -0.06683135 1.1750001
-0.056790233 -0.067115732 1.1800001
-0.054817893 -0.067229487 1.182
-0.052838545 -0.067343242 1.184
-0.050852202 -0.067456998 1.1860001
-0.048899978 -0.067627631 1.189
-0.046937261 -0.067798264 1.192
-0.045039292 -0.068082653 1.197
-0.043087952 -0.068310164 1.2010001
-0.041088481 -0.068480805 1.2040001
-0.038981378 -0.068480805 1.2040001
-0.036935531 -0.06859456 1.2060001
-0.03488268 -0.068708308 1.2080001
-0.03284996 -0.068878941 1.2110001
-0.030882861 -0.069220208 1.217
-0.11441525 -0.067365989 1.222
-0.11172538 -0.067035228 1.2160001
-0.10914663 -0.066759594 1.2110001
-0.10685053 -0.06664934 1.2090001
-0.10456141 -0.066539079 1.207
-0.1022793 -0.066428825 1.205
-0.10000419 -0.066318572 1.2030001
-0.09749195 -0.066042937 1.1980001
-0.095156454 -0.065877549 1.1950001
-0.092753597 -0.065657042 1.1910001
-0.090516984 -0.065546781 1.189
-0.088213004 -0.065381408 1.1860001
-0.085846886 -0.065160885 1.182
-0.083565645 -0.064995505 1.179
-0.081294909 -0.064830117 1.176
-0.079102062 -0.064719863 1.174
-0.076981835 -0.064664744 1.1730001
-0.074737348 -0.064499363 1.1700001
-0.072627619 -0.064444229 1.169
-0.070521399 -0.064389102 1.1680001
-0.068535931 -0.064444229 1.169
-0.066376321 -0.064333975 1.1670001
-0.064168587 -0.064168587 1.164
-0.06218487 -0.064223722 1.1650001
-0.06035253 -0.064444229 1.169
-0.058556069 -0.064719863 1.174
-0.056693986 -0.064940378 1.1780001
-0.054771516 -0.065105766 1.1810001
-0.052883171 -0.065326273 1.1850001
-0.050852202 -0.065381408 1.1860001
-0.048858855 -0.065491654 1.1880001
-0.046897888 -0.065657042 1.1910001
-0.045076922 -0.066042937 1.1980001
-0.043123826 -0.066263437 1.202
-0.041088481 -0.066373698 1.2040001
-0.038949002 -0.066318572 1.2030001
-0.036904905 -0.066428825 1.205
-0.03488268 -0.066594206 1.2080001
-0.03287708 -0.066814721 1.212
-0.030882861 -0.067090355 1.217
-0.11432163 -0.065174013 1.2210001
-0.1116335 -0.06485375 1.215
-0.1090565 -0.064586863 1.21
-0.10667376 -0.064426728 1.207
-0.10438816 -0.064319976 1.205
-0.10202466 -0.064159833 1.202
-0.099671669 -0.063999705 1.199
-0.097166426 -0.063732818 1.194
-0.094917566 -0.063626066 1.192
-0.09244208 -0.063359179 1.187
-0.090212472 -0.063252419 1.1850001
-0.08791548 -0.063092291 1.182
-0.085556373 -0.062878788 1.1780001
-0.083353005 -0.062772021 1.176
-0.081156656 -0.062665261 1.174
-0.078967303 -0.062558517 1.1720001
-0.076850571 -0.062505133 1.171
-0.074737348 -0.062451757 1.1700001
-0.072627619 -0.062398378 1.169
-0.070642151 -0.062451757 1.1700001
-0.068535931 -0.062398378 1.169
-0.066376321 -0.062291626 1.1670001
-0.064168587 -0.062131494 1.164
-0.06218487 -0.06218487 1.1650001
-0.06035253 -0.062398378 1.169
-0.058456313 -0.062558517 1.1720001
-0.056549601 -0.062718645 1.1750001
-0.054678757 -0.062932156 1.179
-0.052749291 -0.063092291 1.182
-0.050766442 -0.063199043 1.184
-0.048776601 -0.063305803 1.1860001
-0.046819128 -0.063465931 1.189
-0.044964042 -0.063786201 1.1950001
-0.042980321 -0.063946329 1.1980001
-0.040951975 -0.064053088 1.2
-0.038851872 -0.064053088 1.2
-0.03684365 -0.064213216 1.2030001
-0.03482493 -0.064373352 1.2060001
-0.032822832 -0.064586863 1.21
-0.030806733 -0.064800374 1.2140001
-0.11441525 -0.063088782 1.222
-0.1116335 -0.062727399 1.215
-0.10914663 -0.062520891 1.2110001
-0.10685053 -0.062417638 1.2090001
-0.10447479 -0.062262751 1.2060001
-0.10193979 -0.062004618 1.2010001
-0.099505417 -0.061798099 1.197
-0.097085051 -0.061591592 1.1930001
-0.094837949 -0.061488338 1.1910001
-0.092519961 -0.061333455 1.1880001
-0.090288602 -0.061230201 1.1860001
-0.08791548 -0.061023686 1.182
-0.085556373 -0.060817182 1.1780001
-0.083353005 -0.060713924 1.176
-0.08122579 -0.060662299 1.1750001
-0.079102062 -0.060610667 1.174
-0.076916203 -0.060507413 1.1720001
-0.074673474 -0.06035253 1.169
-0.072565503 -0.060300905 1.1680001
-0.07046102 -0.06024928 1.1670001
-0.068360038 -0.060197648 1.166
-0.066262566 -0.060146026 1.1650001
-0.064168587 -0.060094394 1.164
-0.06218487 -0.060146026 1.1650001
-0.060300905 -0.060300905 1.1680001
-0.058406439 -0.06045578 1.171
-0.056453347 -0.060559046 1.1730001
-0.054586004 -0.06076555 1.177
-0.052704666 -0.060972068 1.1810001
-0.050680693 -0.061023686 1.182
-0.048694346 -0.061126944 1.184
-0.046740375 -0.06128183 1.187
-0.044851158 -0.061539963 1.192
-0.04287269 -0.061694849 1.1950001
-0.04088372 -0.061849732 1.1980001
-0.038851872 -0.061952986 1.2
-0.036874276 -0.062159494 1.2040001
-0.03488268 -0.062366005 1.2080001
-0.03284996 -0.062520891 1.2110001
-0.030857489 -0.062779024 1.2160001
-0.11441525 -0.060950182 1.222
-0.11172538 -0.060650922 1.2160001
-0.10923675 -0.060451411 1.212
-0.10685053 -0.060301784 1.2090001
-0.10447479 -0.060152147 1.2060001
-0.10193979 -0.059902765 1.2010001
-0.099505417 -0.059703253 1.197
-0.097003669 -0.05945386 1.192
-0.094758317 -0.059354108 1.1900001
-0.092519961 -0.059254356 1.1880001
-0.090288602 -0.0591546 1.1860001
-0.087989867 -0.05900497 1.1830001
-0.085629001 -0.058805458 1.179
-0.083353005 -0.058655821 1.176
-0.081294909 -0.058655821 1.176
-0.079102062 -0.058556069 1.174
-0.076916203 -0.058456313 1.1720001
-0.074673474 -0.058306683 1.169
-0.072379112 -0.058107179 1.1650001
-0.070279881 -0.058057293 1.164
-0.06818416 -0.058007423 1.1630001
-0.066205688 -0.058057293 1.164
-0.064168587 -0.058057293 1.164
-0.062238246 -0.058157045 1.166
-0.060300905 -0.058256809 1.1680001
-0.058406439 -0.058406439 1.171
-0.056501471 -0.058556069 1.174
-0.054539625 -0.058655821 1.176
-0.052615408 -0.058805458 1.179
-0.050680693 -0.058955088 1.182
-0.048694346 -0.05905484 1.184
-0.046740375 -0.059204478 1.187
-0.044775907 -0.059354108 1.1900001
-0.042800937 -0.059503745 1.1930001
-0.040849593 -0.059703253 1.197
-0.038851872 -0.059852883 1.2
-0.036904905 -0.060102273 1.205
-0.034853805 -0.060202025 1.207
-0.032795705 -0.060301784 1.2090001
-0.030781358 -0.060501292 1.2130001
-0.114228 -0.058715325 1.22
-0.11154163 -0.058426566 1.2140001
-0.10923675 -0.058330309 1.212
-0.10676214 -0.058137801 1.2080001
-0.10438816 -0.057993416 1.205
-0.10185491 -0.057752781 1.2
-0.099422291 -0.057560276 1.1960001
-0.097003669 -0.057367764 1.192
-0.094678678 -0.057223383 1.189
-0.092519961 -0.057175256 1.1880001
-0.090212472 -0.057030872 1.1850001
-0.087841108 -0.056838367 1.1810001
-0.085556373 -0.056693986 1.1780001
-0.083282135 -0.056549601 1.1750001
-0.08122579 -0.056549601 1.1750001
-0.07889992 -0.056357086 1.171
-0.076719321 -0.056260832 1.169
-0.074417964 -0.056068327 1.1650001
-0.072254859 -0.055972073 1.1630001
-0.07009875 -0.055875815 1.161
-0.068066902 -0.055875815 1.161
-0.066035055 -0.055875815 1.161
-0.064113468 -0.055972073 1.1630001
-0.062131494 -0.0560202 1.164
-0.06024928 -0.056164581 1.1670001
-0.058306683 -0.056260832 1.169
-0.056308966 -0.056308966 1.1700001
-0.054354116 -0.056405213 1.1720001
-0.052481528 -0.056597725 1.176
-0.050594937 -0.056790233 1.1800001
-0.048612092 -0.05688649 1.182
-0.046622243 -0.056982744 1.184
-0.044663023 -0.057127129 1.187
-0.042693306 -0.05727151 1.1900001
-0.040747214 -0.057464015 1.194
-0.038787119 -0.05765653 1.1980001
-0.036813021 -0.057849035 1.202
-0.034796052 -0.057993416 1.205
-0.032768577 -0.058137801 1.2080001
-0.030857489 -0.05852282 1.2160001
-0.114228 -0.056580227 1.22
-0.11144974 -0.056255583 1.2130001
-0.1090565 -0.056116454 1.21
-0.10658538 -0.055930946 1.2060001
-0.1042149 -0.055791814 1.2030001
-0.10177002 -0.055606302 1.199
-0.099339157 -0.055420794 1.1950001
-0.097085051 -0.055328041 1.1930001
-0.094758317 -0.055188909 1.1900001
-0.092519961 -0.055096157 1.1880001
-0.090060212 -0.054864269 1.1830001
-0.087617971 -0.054632384 1.1780001
-0.085338488 -0.054493252 1.1750001
-0.083069503 -0.054354116 1.1720001
-0.08088015 -0.054261364 1.1700001
-0.07863041 -0.054122232 1.1670001
-0.076522432 -0.054075852 1.166
-0.074354075 -0.0539831 1.164
-0.072254859 -0.053936727 1.1630001
-0.07015913 -0.053890344 1.1620001
-0.068008281 -0.053797591 1.1600001
-0.065978184 -0.053797591 1.1600001
-0.064003207 -0.053843968 1.161
-0.06218487 -0.054029476 1.1650001
-0.06024928 -0.054122232 1.1670001
-0.058306683 -0.054214984 1.169
-0.056308966 -0.054261364 1.1700001
-0.0544005 -0.0544005 1.1730001
-0.052481528 -0.054539625 1.176
-0.050552059 -0.054678757 1.179
-0.048570964 -0.054771516 1.1810001
-0.046661623 -0.054957025 1.1850001
-0.044738278 -0.055142529 1.189
-0.042729184 -0.055235289 1.1910001
-0.040747214 -0.055374417 1.194
-0.038722366 -0.055467173 1.1960001
-0.036751769 -0.055652682 1.2
-0.034738299 -0.055791814 1.2030001
-0.032768577 -0.056023698 1.2080001
-0.11385349 -0.054266613 1.2160001
-0.11126599 -0.054043479 1.2110001
-0.10878611 -0.053864967 1.207
-0.10640863 -0.053731091 1.2040001
-0.10395501 -0.053552579 1.2
-0.10160027 -0.053418696 1.197
-0.099172905 -0.053240187 1.1930001
-0.097003669 -0.053195558 1.192
-0.094599061 -0.053017057 1.1880001
-0.092286319 -0.052883171 1.1850001
-0.089755692 -0.052615408 1.179
-0.087320454 -0.05239227 1.174
-0.084975347 -0.052213769 1.1700001
-0.082715109 -0.052079882 1.1670001
-0.080534503 -0.051990632 1.1650001
-0.078360908 -0.051901374 1.1630001
-0.076325551 -0.051901374 1.1630001
-0.074226327 -0.051856749 1.1620001
-0.072192729 -0.051856749 1.1620001
-0.070038378 -0.051767495 1.1600001
-0.067949645 -0.051722866 1.159
-0.065864421 -0.051678244 1.1580001
-0.063837834 -0.051678244 1.1580001
-0.061971355 -0.05181212 1.161
-0.059991144 -0.051856749 1.1620001
-0.058107179 -0.051990632 1.1650001
-0.056068327 -0.051990632 1.1650001
-0.054168612 -0.052124511 1.1680001
-0.052213769 -0.052213769 1.1700001
-0.050294802 -0.052347649 1.1730001
-0.048365328 -0.052481528 1.176
-0.046543494 -0.052749291 1.182
-0.044663023 -0.052972425 1.187
-0.042621553 -0.053017057 1.1880001
-0.040644836 -0.053150937 1.1910001
-0.038657613 -0.053284816 1.194
-0.036690518 -0.053463325 1.1980001
-0.03470942 -0.053641833 1.202
-0.032768577 -0.053909596 1.2080001
-0.11404074 -0.052224267 1.2180001
-0.11154163 -0.052052759 1.2140001
-0.10896637 -0.051838376 1.2090001
-0.10658538 -0.051709745 1.2060001
-0.10412826 -0.051538233 1.202
-0.10177002 -0.051409598 1.199
-0.099422291 -0.051280972 1.1960001
-0.097166426 -0.051195215 1.194
-0.094758317 -0.051023707 1.1900001
-0.092364199 -0.050852202 1.1860001
-0.089907959 -0.050637819 1.1810001
-0.087543592 -0.050466307 1.177
-0.085047968 -0.050209042 1.171
-0.082715109 -0.050037537 1.1670001
-0.080534503 -0.049951781 1.1650001
-0.078428276 -0.049908906 1.164
-0.076325551 -0.049866032 1.1630001
-0.074290209 -0.049866032 1.1630001
-0.072316982 -0.049908906 1.164
-0.070219509 -0.049866032 1.1630001
-0.068008281 -0.049737398 1.1600001
-0.065864421 -0.049651645 1.1580001
-0.063837834 -0.049651645 1.1580001
-0.061917983 -0.049737398 1.1600001
-0.059991144 -0.04982315 1.1620001
-0.058057293 -0.049908906 1.164
-0.056068327 -0.049951781 1.1650001
-0.054122232 -0.050037537 1.1670001
-0.052213769 -0.050166167 1.1700001
-0.050294802 -0.050294802 1.1730001
-0.04848871 -0.050552059 1.179
-0.046622243 -0.050766442 1.184
-0.044700652 -0.050937958 1.1880001
-0.042693306 -0.051023707 1.1900001
-0.040747214 -0.051195215 1.194
-0.038787119 -0.051366724 1.1980001
-0.036813021 -0.051538233 1.202
-0.03482493 -0.051709745 1.2060001
-0.032822832 -0.051881246 1.21
-0.11375985 -0.049969282 1.215
-0.11126599 -0.049804773 1.2110001
-0.10878611 -0.049640264 1.207
-0.106497 -0.049558014 1.205
-0.10404164 -0.049393509 1.2010001
-0.10168515 -0.049270123 1.1980001
-0.099339157 -0.049146742 1.1950001
-0.097003669 -0.04902336 1.192
-0.094519429 -0.048817724 1.187
-0.092130564 -0.048653223 1.1830001
-0.089603439 -0.048406456 1.177
-0.087320454 -0.048283074 1.174
-0.084902711 -0.048077438 1.169
-0.082715109 -0.047995187 1.1670001
-0.080534503 -0.047912937 1.1650001
-0.078428276 -0.047871806 1.164
-0.076325551 -0.047830679 1.1630001
-0.074162446 -0.047748424 1.161
-0.072068475 -0.047707301 1.1600001
-0.069977991 -0.047666173 1.159
-0.067891024 -0.047625046 1.1580001
-0.065864421 -0.047625046 1.1580001
-0.063837834 -0.047625046 1.1580001
-0.061864607 -0.047666173 1.159
-0.059836257 -0.047666173 1.159
-0.057857785 -0.047707301 1.1600001
-0.055923946 -0.047789551 1.1620001
-0.053936727 -0.047830679 1.1630001
-0.052079882 -0.047995187 1.1670001
-0.050209042 -0.048159692 1.171
-0.048406456 -0.048406456 1.177
-0.046464738 -0.048529837 1.1800001
-0.044587772 -0.048735473 1.1850001
-0.042621553 -0.048858855 1.1880001
-0.040713087 -0.049064487 1.1930001
-0.038754743 -0.049228996 1.197
-0.036782399 -0.049393509 1.2010001
-0.034796052 -0.049558014 1.205
-0.032822832 -0.049763646 1.21
-0.11404074 -0.04796106 1.2180001
-0.11144974 -0.047764175 1.2130001
-0.10887624 -0.047567293 1.2080001
-0.10640863 -0.047409784 1.2040001
-0.10395501 -0.047252279 1.2
-0.10168515 -0.047173522 1.1980001
-0.099339157 -0.04705539 1.1950001
-0.097003669 -0.046937261 1.192
-0.094599061 -0.046779756 1.1880001
-0.092364199 -0.046701003 1.1860001
-0.089831829 -0.046464738 1.1800001
-0.087469205 -0.046307229 1.176
-0.085047968 -0.046110343 1.171
-0.082927741 -0.046070967 1.1700001
-0.080811016 -0.046031591 1.169
-0.078563027 -0.045913462 1.166
-0.076456808 -0.045874085 1.1650001
-0.074290209 -0.045795336 1.1630001
-0.072192729 -0.045755953 1.1620001
-0.069977991 -0.045637824 1.159
-0.067949645 -0.045637824 1.159
-0.065978184 -0.045677204 1.1600001
-0.064058334 -0.045755953 1.1620001
-0.062024739 -0.045755953 1.1620001
-0.059991144 -0.045755953 1.1620001
-0.058007423 -0.045795336 1.1630001
-0.0560202 -0.045834705 1.164
-0.054075852 -0.045913462 1.166
-0.052213769 -0.046070967 1.1700001
-0.050380554 -0.046267856 1.1750001
-0.04848871 -0.046425361 1.179
-0.046543494 -0.046543494 1.182
-0.044625401 -0.046701003 1.1860001
-0.042693306 -0.046858508 1.1900001
-0.040815469 -0.04709477 1.1960001
-0.038819492 -0.047212899 1.199
-0.03684365 -0.047370408 1.2030001
-0.03482493 -0.04748854 1.2060001
-0.032904208 -0.047764175 1.2130001
-0.11385349 -0.045754205 1.2160001
-0.11117411 -0.045528442 1.21
-0.10869599 -0.04537794 1.2060001
-0.10623186 -0.045227427 1.202
-0.10386837 -0.045114547 1.199
-0.10160027 -0.045039292 1.197
-0.099256024 -0.044926412 1.194
-0.096840918 -0.044775907 1.1900001
-0.094360173 -0.044587772 1.1850001
-0.092052683 -0.044474892 1.182
-0.089603439 -0.044286758 1.177
-0.087171696 -0.044098627 1.1720001
-0.084975347 -0.044023372 1.1700001
-0.082856864 -0.043985743 1.169
-0.080811016 -0.043985743 1.169
-0.07863041 -0.043910492 1.1670001
-0.076456808 -0.043835238 1.1650001
-0.074290209 -0.043759983 1.1630001
-0.072130598 -0.043684728 1.161
-0.069977991 -0.043609474 1.159
-0.067949645 -0.043609474 1.159
-0.066035055 -0.043684728 1.161
-0.064168587 -0.043797608 1.164
-0.062131494 -0.043797608 1.164
-0.060094394 -0.043797608 1.164
-0.058057293 -0.043797608 1.164
-0.056068327 -0.043835238 1.1650001
-0.054122232 -0.043910492 1.1670001
-0.052213769 -0.044023372 1.1700001
-0.050337672 -0.044173878 1.174
-0.048406456 -0.044286758 1.177
-0.046504118 -0.044437267 1.1810001
-0.044587772 -0.044587772 1.1850001
-0.042693306 -0.044775907 1.1900001
-0.040747214 -0.044926412 1.194
-0.038722366 -0.045001671 1.1960001
-0.036751769 -0.045152176 1.2
-0.034738299 -0.045265056 1.2030001
-0.03287708 -0.045603696 1.212
-0.11413438 -0.043733735 1.2190001
-0.11154163 -0.043554351 1.2140001
-0.10896637 -0.043374967 1.2090001
-0.10658538 -0.043267336 1.2060001
-0.1042149 -0.043159705 1.2030001
-0.10185491 -0.043052074 1.2
-0.099422291 -0.042908568 1.1960001
-0.097085051 -0.042800937 1.1930001
-0.094678678 -0.042657427 1.189
-0.092286319 -0.042513922 1.1850001
-0.089907959 -0.04237042 1.1810001
-0.087469205 -0.042191029 1.176
-0.085338488 -0.042155158 1.1750001
-0.083069503 -0.042047527 1.1720001
-0.081018403 -0.042047527 1.1720001
-0.078765169 -0.041939896 1.169
-0.076719321 -0.041939896 1.169
-0.074673474 -0.041939896 1.169
-0.072565503 -0.041904021 1.1680001
-0.070340261 -0.04179639 1.1650001
-0.068301417 -0.04179639 1.1650001
-0.066319443 -0.041832265 1.166
-0.064389102 -0.041904021 1.1680001
-0.062345009 -0.041904021 1.1680001
-0.06035253 -0.041939896 1.169
-0.058306683 -0.041939896 1.169
-0.056308966 -0.04197577 1.1700001
-0.054307736 -0.042011648 1.171
-0.052347649 -0.042083401 1.1730001
-0.050466307 -0.042226911 1.177
-0.048447587 -0.042262789 1.1780001
-0.04658287 -0.042442169 1.1830001
-0.044663023 -0.042585675 1.187
-0.042729184 -0.042729184 1.1910001
-0.040781341 -0.04287269 1.1950001
-0.038787119 -0.042980321 1.1980001
-0.03684365 -0.043159705 1.2030001
-0.03482493 -0.043267336 1.2060001
-0.11413438 -0.04160038 1.2190001
-0.11135786 -0.041361492 1.212
-0.10878611 -0.041190859 1.207
-0.106497 -0.041122608 1.205
-0.10412826 -0.041020226 1.202
-0.10185491 -0.040951975 1.2
-0.099339157 -0.040781341 1.1950001
-0.097003669 -0.040678959 1.192
-0.094678678 -0.040576581 1.189
-0.092286319 -0.040440075 1.1850001
-0.089907959 -0.040303569 1.1810001
-0.087543592 -0.04016706 1.177
-0.085338488 -0.040098809 1.1750001
-0.083069503 -0.039996427 1.1720001
-0.080949277 -0.039962295 1.171
-0.078832544 -0.039928176 1.1700001
-0.076784953 -0.039928176 1.1700001
-0.074673474 -0.039894044 1.169
-0.072565503 -0.039859924 1.1680001
-0.07040064 -0.039791662 1.166
-0.068301417 -0.039757539 1.1650001
-0.066376321 -0.039825793 1.1670001
-0.064389102 -0.039859924 1.1680001
-0.062398378 -0.039894044 1.169
-0.060404163 -0.039928176 1.1700001
-0.058406439 -0.039962295 1.171
-0.056308966 -0.039928176 1.1700001
-0.054307736 -0.039962295 1.171
-0.05230302 -0.039996427 1.1720001
-0.050423428 -0.040132929 1.176
-0.04848871 -0.040235311 1.179
-0.04658287 -0.04037182 1.1830001
-0.044625401 -0.040474202 1.1860001
-0.042657427 -0.040576581 1.189
-0.040678959 -0.040678959 1.192
-0.038722366 -0.040815469 1.1960001
-0.036751769 -0.040951975 1.2
-0.03488268 -0.041224986 1.2080001
-0.1116335 -0.03933752 1.215
-0.10896637 -0.039143264 1.2090001
-0.10667376 -0.039078508 1.207
-0.1042149 -0.038949002 1.2030001
-0.10202466 -0.038916621 1.202
-0.099588551 -0.038787119 1.1980001
-0.09741056 -0.038754743 1.197
-0.094997197 -0.038625237 1.1930001
-0.092753597 -0.038560484 1.1910001
-0.090364724 -0.038430978 1.187
-0.088064238 -0.038333844 1.184
-0.085774265 -0.038236719 1.1810001
-0.083423898 -0.038107213 1.177
-0.08122579 -0.03804246 1.1750001
-0.079102062 -0.038010079 1.174
-0.07704746 -0.038010079 1.174
-0.074992865 -0.038010079 1.174
-0.072876133 -0.037977707 1.1730001
-0.070642151 -0.037880573 1.1700001
-0.06859456 -0.037880573 1.1700001
-0.066603832 -0.03791295 1.171
-0.064664744 -0.037977707 1.1730001
-0.062611893 -0.037977707 1.1730001
-0.060610667 -0.038010079 1.174
-0.058556069 -0.038010079 1.174
-0.056501471 -0.038010079 1.174
-0.054493252 -0.03804246 1.1750001
-0.052526154 -0.038107213 1.177
-0.050594937 -0.038204342 1.1800001
-0.048653223 -0.038301472 1.1830001
-0.046740375 -0.038430978 1.187
-0.044775907 -0.038528107 1.1900001
-0.042765059 -0.038592856 1.192
-0.040781341 -0.038689986 1.1950001
-0.038819492 -0.038819492 1.199
-0.036904905 -0.039013755 1.205
-0.11154163 -0.037180543 1.2140001
-0.10887624 -0.036996782 1.2080001
-0.106497 -0.036904905 1.205
-0.10412826 -0.036813021 1.202
-0.10185491 -0.036751769 1.2
-0.099588551 -0.036690518 1.1980001
-0.09749195 -0.036690518 1.1980001
-0.095156454 -0.036598638 1.1950001
-0.09283147 -0.036506757 1.192
-0.090440862 -0.036384251 1.1880001
-0.088138625 -0.036292374 1.1850001
-0.085846886 -0.036200494 1.182
-0.083565645 -0.036108613 1.179
-0.081364043 -0.036047358 1.177
-0.079304196 -0.036047358 1.177
-0.077244341 -0.036047358 1.177
-0.075056739 -0.035986111 1.1750001
-0.072876133 -0.035924856 1.1730001
-0.070642151 -0.035832979 1.1700001
-0.06859456 -0.035832979 1.1700001
-0.066603832 -0.035863601 1.171
-0.064719863 -0.035955481 1.174
-0.062772021 -0.036016732 1.176
-0.060662299 -0.035986111 1.1750001
-0.058556069 -0.035955481 1.174
-0.056453347 -0.035924856 1.1730001
-0.054493252 -0.035986111 1.1750001
-0.052526154 -0.036047358 1.177
-0.050594937 -0.036139242 1.1800001
-0.048653223 -0.036231119 1.1830001
-0.046740375 -0.036353625 1.187
-0.044775907 -0.036445506 1.1900001
-0.042729184 -0.036476135 1.1910001
-0.040713087 -0.036537383 1.1930001
-0.038754743 -0.036659889 1.197
-0.03684365 -0.03684365 1.2030001
-0.1120929 -0.035229199 1.22
-0.10941702 -0.035055939 1.2140001
-0.1069389 -0.034940433 1.21
-0.10456141 -0.034853805 1.207
-0.1022793 -0.034796052 1.205
-0.099921063 -0.03470942 1.202
-0.097736083 -0.034680545 1.2010001
-0.095474973 -0.034622792 1.199
-0.093220867 -0.034565039 1.197
-0.09089762 -0.034478411 1.194
-0.088584892 -0.034391783 1.1910001
-0.086427912 -0.034362905 1.1900001
-0.084132679 -0.034276277 1.187
-0.08191707 -0.034218524 1.1850001
-0.079708464 -0.03416077 1.1830001
-0.077506863 -0.034103017 1.1810001
-0.075312249 -0.034045264 1.179
-0.073186778 -0.034016389 1.1780001
-0.070944041 -0.033929758 1.1750001
-0.068946317 -0.033958632 1.176
-0.06683135 -0.033929758 1.1750001
-0.064940378 -0.034016389 1.1780001
-0.062985532 -0.034074143 1.1800001
-0.060920436 -0.034074143 1.1800001
-0.05875558 -0.034016389 1.1780001
-0.056742106 -0.034045264 1.179
-0.054817893 -0.034131892 1.182
-0.052883171 -0.034218524 1.1850001
-0.050809324 -0.034218524 1.1850001
-0.048817724 -0.034276277 1.187
-0.046897888 -0.034391783 1.1910001
-0.044926412 -0.034478411 1.194
-0.04287269 -0.034507286 1.1950001
-0.04088372 -0.034593917 1.1980001
-0.038916621 -0.03470942 1.202
-0.037027407 -0.034911558 1.2090001
-0.11236854 -0.033175472 1.223
-0.10959728 -0.03298559 1.2160001
-0.10711566 -0.03287708 1.212
-0.10482129 -0.032822832 1.21
-0.10253394 -0.032768577 1.2080001
-0.10017045 -0.032687198 1.205
-0.097898841 -0.032632947 1.2030001
-0.095634237 -0.032578696 1.2010001
-0.093298748 -0.032497313 1.1980001
-0.091049887 -0.032443065 1.1960001
-0.088808022 -0.03238881 1.194
-0.086500548 -0.032307431 1.1910001
-0.084274426 -0.03225318 1.189
-0.082055323 -0.032198925 1.187
-0.07977584 -0.032117549 1.184
-0.077572487 -0.032063294 1.182
-0.075312249 -0.031981915 1.179
-0.073186778 -0.031954788 1.1780001
-0.0710648 -0.03192766 1.177
-0.069004945 -0.03192766 1.177
-0.066945098 -0.03192766 1.177
-0.064995505 -0.031981915 1.179
-0.062985532 -0.032009043 1.1800001
-0.060920436 -0.032009043 1.1800001
-0.058805458 -0.031981915 1.179
-0.056838367 -0.03203617 1.1810001
-0.054910641 -0.032117549 1.184
-0.052972425 -0.032198925 1.187
-0.050937958 -0.032226052 1.1880001
-0.048941109 -0.032280307 1.1900001
-0.046937261 -0.032334555 1.192
-0.044964042 -0.032415938 1.1950001
-0.042980321 -0.032497313 1.1980001
-0.040986102 -0.032578696 1.2010001
-0.039013755 -0.032687198 1.205
-0.037088662 -0.03284996 1.2110001
-0.11031832 -0.031060496 1.2240001
-0.10782269 -0.030958991 1.22
-0.1054277 -0.030882861 1.217
-0.10321297 -0.030857489 1.2160001
-0.10066923 -0.030730607 1.2110001
-0.098224349 -0.0306291 1.207
-0.095952749 -0.030578347 1.205
-0.093766026 -0.030552974 1.2040001
-0.09165892 -0.030552974 1.2040001
-0.089179918 -0.030426089 1.199
-0.086863682 -0.030349962 1.1960001
-0.08462882 -0.030299207 1.194
-0.082331844 -0.030223081 1.1910001
-0.080045357 -0.030146955 1.1880001
-0.077769376 -0.030070825 1.1850001
-0.075631641 -0.030045444 1.184
-0.073559545 -0.030045444 1.184
-0.07142707 -0.030020073 1.1830001
-0.069298089 -0.029994693 1.182
-0.067172617 -0.029969322 1.1810001
-0.065160885 -0.029994693 1.182
-0.063145667 -0.030020073 1.1830001
-0.061178569 -0.030070825 1.1850001
-0.0591546 -0.030096203 1.1860001
-0.057223383 -0.030172326 1.189
-0.055281661 -0.030248456 1.192
-0.053329445 -0.030324586 1.1950001
-0.051238094 -0.030324586 1.1950001
-0.049228996 -0.030375337 1.197
-0.047212899 -0.030426089 1.199
-0.045227427 -0.030502219 1.202
-0.04330321 -0.0306291 1.207
-0.041327368 -0.030730607 1.2110001
-0.10844135 -0.028989272 1.2270001
-0.10594748 -0.028894765 1.223
-0.10329785 -0.028753011 1.217
-0.10066923 -0.028611254 1.2110001
-0.097980224 -0.028445872 1.2040001
-0.095793493 -0.028422246 1.2030001
-0.093610257 -0.028398618 1.202
-0.091582783 -0.028422246 1.2030001
-0.089328676 -0.028374992 1.2010001
-0.08693631 -0.028280485 1.197
-0.08462882 -0.028209606 1.194
-0.08226271 -0.028115105 1.1900001
-0.080045357 -0.028067855 1.1880001
-0.077835001 -0.028020602 1.1860001
-0.075759403 -0.028020602 1.1860001
-0.073621668 -0.027996972 1.1850001
-0.071487442 -0.027973346 1.184
-0.069298089 -0.027926095 1.182
-0.067229487 -0.027926095 1.182
-0.06521602 -0.027949722 1.1830001
-0.063199043 -0.027973346 1.184
-0.061075319 -0.027949722 1.1830001
-0.0591546 -0.028020602 1.1860001
-0.057223383 -0.028091477 1.189
-0.055328041 -0.028185984 1.1930001
-0.053329445 -0.028233236 1.1950001
-0.051280972 -0.028256863 1.1960001
-0.049270123 -0.028304113 1.1980001
-0.047291655 -0.028374992 1.2010001
-0.045340311 -0.028469495 1.205
-0.043410841 -0.028587628 1.21
-0.10664051 -0.026929423 1.2310001
-0.10372224 -0.026732536 1.222
-0.10100174 -0.026579404 1.215
-0.098142974 -0.026382521 1.2060001
-0.095873125 -0.026338769 1.2040001
-0.093610257 -0.026295016 1.202
-0.09150666 -0.026295016 1.202
-0.089328676 -0.026273141 1.2010001
-0.087081566 -0.026229387 1.199
-0.084912345 -0.026207514 1.1980001
-0.082608357 -0.026141886 1.1950001
-0.08038225 -0.026098134 1.1930001
-0.07816314 -0.026054382 1.1910001
-0.076014914 -0.026032504 1.1900001
-0.073870182 -0.026010627 1.189
-0.071668573 -0.025966875 1.187
-0.069473974 -0.025923124 1.1850001
-0.067456998 -0.025945002 1.1860001
-0.065491654 -0.025988754 1.1880001
-0.063519314 -0.026032504 1.1900001
-0.06138508 -0.026010627 1.189
-0.05945386 -0.026076255 1.192
-0.057464015 -0.026120007 1.194
-0.055467173 -0.026163761 1.1960001
-0.053418696 -0.026185635 1.197
-0.051409598 -0.026229387 1.199
-0.049434628 -0.026295016 1.202
-0.04748854 -0.026382521 1.2060001
-0.045528442 -0.026470024 1.21
-0.1069004 -0.024835447 1.2340001
-0.10389201 -0.024634188 1.2240001
-0.10116799 -0.024493305 1.217
-0.098387122 -0.024332298 1.2090001
-0.096111998 -0.024292044 1.207
-0.093766026 -0.024231669 1.2040001
-0.09143053 -0.024171291 1.2010001
-0.089179918 -0.024131035 1.199
-0.086863682 -0.024070662 1.1960001
-0.084699705 -0.024050534 1.1950001
-0.082400963 -0.023990154 1.192
-0.080247492 -0.02397003 1.1910001
-0.078097515 -0.023949903 1.1900001
-0.076014914 -0.023949903 1.1900001
-0.073808059 -0.023909653 1.1880001
-0.07172896 -0.023909653 1.1880001
-0.069591224 -0.023889525 1.187
-0.067570761 -0.023909653 1.1880001
-0.065491654 -0.023909653 1.1880001
-0.063412555 -0.023909653 1.1880001
-0.061333455 -0.023909653 1.1880001
-0.059354108 -0.023949903 1.1900001
-0.05727151 -0.023949903 1.1900001
-0.055281661 -0.023990154 1.192
-0.053240187 -0.024010282 1.1930001
-0.051323846 -0.024090784 1.197
-0.049475759 -0.024211543 1.2030001
-0.047646042 -0.024352424 1.21
-0.045678951 -0.024432927 1.2140001
-0.10941352 -0.022749346 1.238
-0.10698702 -0.022694217 1.235
-0.10448616 -0.022620715 1.2310001
-0.10208242 -0.022565586 1.228
-0.099363662 -0.022436956 1.2210001
-0.096908294 -0.02236345 1.217
-0.09431117 -0.022253197 1.2110001
-0.091735043 -0.022142941 1.205
-0.089328676 -0.022069439 1.2010001
-0.087008946 -0.022014311 1.1980001
-0.08484146 -0.021995934 1.197
-0.082470104 -0.021922432 1.1930001
-0.080314867 -0.021904055 1.192
-0.078097515 -0.021867303 1.1900001
-0.075951025 -0.021848926 1.189
-0.073808059 -0.021830551 1.1880001
-0.071668573 -0.021812174 1.187
-0.069591224 -0.021812174 1.187
-0.067513876 -0.021812174 1.187
-0.065436527 -0.021812174 1.187
-0.063465931 -0.021848926 1.189
-0.061436713 -0.021867303 1.1900001
-0.05945386 -0.021904055 1.192
-0.057367764 -0.021904055 1.192
-0.055281661 -0.021904055 1.192
-0.053329445 -0.021959184 1.1950001
-0.05145248 -0.022051062 1.2
-0.049681395 -0.02219807 1.2080001
-0.11167026 -0.020599369 1.2390001
-0.10897163 -0.020499611 1.233
-0.10681377 -0.020499611 1.233
-0.10431641 -0.020433109 1.2290001
-0.10191616 -0.020383231 1.2260001
-0.09928228 -0.020283476 1.22
-0.096908294 -0.020233599 1.217
-0.094466932 -0.020167096 1.2130001
-0.091887303 -0.020067342 1.207
-0.089477435 -0.02000084 1.2030001
-0.087081566 -0.019934334 1.199
-0.084770583 -0.01988446 1.1960001
-0.082400963 -0.019817954 1.192
-0.080112733 -0.019768076 1.189
-0.077769376 -0.019701574 1.1850001
-0.075695522 -0.019701574 1.1850001
-0.073559545 -0.019684948 1.184
-0.07142707 -0.019668322 1.1830001
-0.06923946 -0.019635072 1.1810001
-0.067172617 -0.019635072 1.1810001
-0.06521602 -0.019668322 1.1830001
-0.063252419 -0.019701574 1.1850001
-0.06128183 -0.019734826 1.187
-0.059254356 -0.019751452 1.1880001
-0.057175256 -0.019751452 1.1880001
-0.055188909 -0.019784702 1.1900001
-0.053240187 -0.019834582 1.1930001
-0.05145248 -0.019950962 1.2
-0.049722522 -0.020100595 1.2090001
-0.11167026 -0.018431013 1.2390001
-0.10923676 -0.018386386 1.2360001
-0.10707366 -0.018386386 1.2360001
-0.10457104 -0.018326884 1.2320001
-0.10191616 -0.018237628 1.2260001
-0.09928228 -0.018148374 1.22
-0.09674903 -0.018073995 1.215
-0.09431117 -0.018014494 1.2110001
-0.091887303 -0.01795499 1.207
-0.089700572 -0.017940113 1.2060001
-0.087517343 -0.017925238 1.205
-0.085124977 -0.017865736 1.2010001
-0.082677484 -0.017791357 1.1960001
-0.08038225 -0.017746732 1.1930001
-0.077966258 -0.017672351 1.1880001
-0.075759403 -0.0176426 1.1860001
-0.073559545 -0.017612848 1.184
-0.07142707 -0.017597973 1.1830001
-0.069298089 -0.017583096 1.182
-0.067229487 -0.017583096 1.182
-0.065160885 -0.017583096 1.182
-0.063199043 -0.017612848 1.184
-0.061178569 -0.017627724 1.1850001
-0.059204478 -0.017657476 1.187
-0.057127129 -0.017657476 1.187
-0.055142529 -0.017687226 1.189
-0.053284816 -0.017761605 1.194
