# .PCD v0.7 - Point Cloud Data file format
VERSION 0.7
FIELDS x y z
SIZE 4 4 4
TYPE F F F
COUNT 1 1 1
WIDTH 1417
HEIGHT 1
VIEWPOINT 0 0 0 1 0 0 0
POINTS 1417
DATA ascii
-0.053597208 -0.095634237 1.2010001
-0.051495355 -0.095634237 1.2010001
-0.049516886 -0.095873125 1.2040001
-0.047527913 -0.096111998 1.207
-0.045453191 -0.096191637 1.2080001
-0.043374967 -0.096271269 1.2090001
-0.041293241 -0.096350886 1.21
-0.039305143 -0.096669406 1.2140001
-0.03727242 -0.096908294 1.217
-0.035229199 -0.097147182 1.22
-0.03333823 -0.097863838 1.2290001
-0.031491894 -0.09881939 1.2410001
-0.029414542 -0.099137895 1.245
-0.027301315 -0.099376783 1.248
-0.12889634 -0.098049343 1.2590001
-0.12558605 -0.097192675 1.248
-0.12340194 -0.097192675 1.248
-0.12082933 -0.096881166 1.2440001
-0.11836608 -0.096647531 1.2410001
-0.11553882 -0.096102379 1.2340001
-0.1130117 -0.095790863 1.23
-0.11022818 -0.095245719 1.223
-0.10791107 -0.095089957 1.2210001
-0.10525444 -0.094622679 1.215
-0.10295833 -0.094466932 1.2130001
-0.10058609 -0.094233289 1.21
-0.098549873 -0.09431117 1.2110001
-0.096191637 -0.094077535 1.2080001
-0.093766026 -0.093766026 1.2040001
-0.09143053 -0.093532383 1.2010001
-0.089254305 -0.093454503 1.2
-0.08722683 -0.093532383 1.2010001
-0.0850541 -0.093454503 1.2
-0.082953997 -0.093454503 1.2
-0.080786511 -0.093376614 1.199
-0.078622542 -0.093298748 1.1980001
-0.076525934 -0.093298748 1.1980001
-0.074491456 -0.093376614 1.199
-0.072513871 -0.093532383 1.2010001
-0.070470646 -0.093610257 1.202
-0.068367042 -0.093610257 1.202
-0.066208318 -0.093532383 1.2010001
-0.064106472 -0.093532383 1.2010001
-0.061952986 -0.093454503 1.2
-0.059852883 -0.093454503 1.2
-0.057752781 -0.093454503 1.2
-0.055699058 -0.093532383 1.2010001
-0.053686462 -0.093688145 1.2030001
-0.051581111 -0.093688145 1.2030001
-0.049434628 -0.093610257 1.202
-0.047409784 -0.093766026 1.2040001
-0.045415562 -0.093999654 1.207
-0.043374967 -0.094155416 1.2090001
-0.041327368 -0.09431117 1.2110001
-0.039272767 -0.094466932 1.2130001
-0.037180543 -0.094544813 1.2140001
-0.035113692 -0.09470056 1.2160001
-0.0332026 -0.0953236 1.2240001
-0.031441141 -0.096491769 1.2390001
-0.029390916 -0.096881166 1.2440001
-0.027257564 -0.09703692 1.2460001
-0.12629047 -0.095541485 1.2550001
-0.12379747 -0.095313095 1.2520001
-0.12082933 -0.094704062 1.2440001
-0.11836608 -0.094475672 1.2410001
-0.11544518 -0.093866646 1.233
-0.11291982 -0.093562134 1.2290001
-0.11049858 -0.093333744 1.2260001
-0.10817622 -0.093181491 1.2240001
-0.10568759 -0.092876971 1.22
-0.10312809 -0.092496328 1.215
-0.10075235 -0.092267938 1.212
-0.098468497 -0.092115685 1.21
-0.096191637 -0.091963433 1.2080001
-0.093688145 -0.091582783 1.2030001
-0.09143053 -0.09143053 1.2010001
-0.089254305 -0.0913544 1.2
-0.087154202 -0.0913544 1.2
-0.085124977 -0.09143053 1.2010001
-0.083023123 -0.09143053 1.2010001
-0.080921277 -0.09143053 1.2010001
-0.078819424 -0.09143053 1.2010001
-0.07671757 -0.09143053 1.2010001
-0.074615717 -0.09143053 1.2010001
-0.072513871 -0.09143053 1.2010001
-0.070412017 -0.09143053 1.2010001
-0.068310164 -0.09143053 1.2010001
-0.066263437 -0.09150666 1.202
-0.064159833 -0.09150666 1.202
-0.062056236 -0.09150666 1.202
-0.059952635 -0.09150666 1.202
-0.057849035 -0.09150666 1.202
-0.055838194 -0.09165892 1.2040001
-0.053686462 -0.091582783 1.2030001
-0.051538233 -0.09150666 1.202
-0.049393509 -0.09143053 1.2010001
-0.04744916 -0.091735043 1.205
-0.045490816 -0.092039563 1.2090001
-0.043554351 -0.092420205 1.2140001
-0.041463871 -0.092496328 1.215
-0.0393699 -0.092572458 1.2160001
-0.03727242 -0.092648581 1.217
-0.035142567 -0.092648581 1.217
-0.033175472 -0.093105353 1.223
-0.031365011 -0.094095036 1.2360001
-0.029438168 -0.094856322 1.2460001
-0.1330913 -0.093493879 1.2570001
-0.13005839 -0.092898853 1.2490001
-0.12879395 -0.093568251 1.258
-0.12558605 -0.092824467 1.248
-0.12320418 -0.092675716 1.2460001
-0.1204408 -0.092229441 1.24
-0.11798456 -0.092006311 1.2370001
-0.11507067 -0.091411285 1.2290001
-0.11264418 -0.091188148 1.2260001
-0.11031832 -0.091039389 1.2240001
-0.10799944 -0.090890624 1.222
-0.10560096 -0.090667494 1.2190001
-0.10295833 -0.090221219 1.2130001
-0.10041984 -0.08984933 1.2080001
-0.098142974 -0.089700572 1.2060001
-0.095952749 -0.089626193 1.205
-0.093688145 -0.089477435 1.2030001
-0.0913544 -0.089254305 1.2
-0.089105546 -0.089105546 1.1980001
-0.087008946 -0.089105546 1.1980001
-0.084983215 -0.089179918 1.199
-0.082884863 -0.089179918 1.199
-0.080719136 -0.089105546 1.1980001
-0.07855691 -0.08903116 1.197
-0.07646206 -0.08903116 1.197
-0.074429341 -0.089105546 1.1980001
-0.072211981 -0.088956788 1.1960001
-0.070118874 -0.088956788 1.1960001
-0.068025775 -0.088956788 1.1960001
-0.066042937 -0.089105546 1.1980001
-0.063892946 -0.08903116 1.197
-0.061746474 -0.088956788 1.1960001
-0.059703253 -0.08903116 1.197
-0.057608396 -0.08903116 1.197
-0.055559926 -0.089105546 1.1980001
-0.053418696 -0.08903116 1.197
-0.051366724 -0.089105546 1.1980001
-0.049270123 -0.089105546 1.1980001
-0.047331028 -0.089403048 1.202
-0.045415562 -0.089774944 1.207
-0.04344672 -0.090072468 1.2110001
-0.041429747 -0.090295605 1.2140001
-0.039402269 -0.090518728 1.217
-0.03727242 -0.090518728 1.217
-0.035113692 -0.090444356 1.2160001
-0.033012714 -0.090518728 1.217
-0.031212755 -0.091485657 1.23
-0.13277365 -0.091076143 1.2540001
-0.12912121 -0.090059333 1.24
-0.12848681 -0.091148771 1.2550001
-0.1260892 -0.091003507 1.253
-0.12350082 -0.090712994 1.2490001
-0.12053793 -0.090131968 1.2410001
-0.11798456 -0.089841455 1.2370001
-0.11497705 -0.089187793 1.228
-0.11246042 -0.088897288 1.2240001
-0.10995779 -0.088606767 1.22
-0.10764594 -0.088461511 1.2180001
-0.10525444 -0.088243626 1.215
-0.10278858 -0.087953113 1.2110001
-0.10033671 -0.087662593 1.207
-0.097980224 -0.087444715 1.2040001
-0.095873125 -0.087444715 1.2040001
-0.093610257 -0.087299451 1.202
-0.09143053 -0.08722683 1.2010001
-0.089179918 -0.087081566 1.199
-0.087154202 -0.087154202 1.2
-0.0850541 -0.087154202 1.2
-0.082815744 -0.087008946 1.1980001
-0.080584385 -0.086863682 1.1960001
-0.078425653 -0.086791053 1.1950001
-0.076334298 -0.086791053 1.1950001
-0.074367203 -0.08693631 1.197
-0.07203085 -0.086645797 1.1930001
-0.069825739 -0.086500548 1.1910001
-0.067741394 -0.086500548 1.1910001
-0.065877549 -0.086791053 1.1950001
-0.063839577 -0.086863682 1.1960001
-0.061746474 -0.086863682 1.1960001
-0.059703253 -0.08693631 1.197
-0.05765653 -0.087008946 1.1980001
-0.055559926 -0.087008946 1.1980001
-0.053418696 -0.08693631 1.197
-0.051409598 -0.087081566 1.199
-0.049393509 -0.08722683 1.2010001
-0.047409784 -0.087444715 1.2040001
-0.045340311 -0.087517343 1.205
-0.043374967 -0.087807857 1.2090001
-0.041327368 -0.087953113 1.2110001
-0.039305143 -0.088170998 1.2140001
-0.03727242 -0.088388883 1.217
-0.035142567 -0.088388883 1.217
-0.033066969 -0.088534147 1.2190001
-0.031111248 -0.089042537 1.2260001
-0.13160896 -0.088101864 1.243
-0.12943362 -0.088101864 1.243
-0.1285892 -0.089023285 1.256
-0.12568668 -0.088527143 1.2490001
-0.12290754 -0.088101864 1.243
-0.12005229 -0.087605722 1.2360001
-0.11741228 -0.087251328 1.2310001
-0.11460253 -0.086755179 1.2240001
-0.11190914 -0.086329907 1.2180001
-0.10932689 -0.08597552 1.2130001
-0.1069389 -0.085762881 1.21
-0.10464804 -0.085621126 1.2080001
-0.10244906 -0.085550241 1.207
-0.10008733 -0.085337617 1.2040001
-0.097817458 -0.085195847 1.202
-0.095554605 -0.0850541 1.2
-0.093298748 -0.084912345 1.1980001
-0.09112601 -0.08484146 1.197
-0.08903116 -0.08484146 1.197
-0.087008946 -0.084912345 1.1980001
-0.08484146 -0.08484146 1.197
-0.082539223 -0.08462882 1.194
-0.080247492 -0.084416196 1.1910001
-0.078097515 -0.084345318 1.1900001
-0.075951025 -0.084274426 1.189
-0.073808059 -0.084203556 1.1880001
-0.071306311 -0.083707415 1.1810001
-0.069180831 -0.08363653 1.1800001
-0.067115732 -0.08363653 1.1800001
-0.065326273 -0.083990924 1.1850001
-0.06357269 -0.084416196 1.1910001
-0.061643217 -0.08462882 1.194
-0.059553616 -0.08462882 1.194
-0.057415891 -0.08455795 1.1930001
-0.055374417 -0.08462882 1.194
-0.053284816 -0.08462882 1.194
-0.051366724 -0.084912345 1.1980001
-0.04931125 -0.084983215 1.199
-0.047291655 -0.085124977 1.2010001
-0.045189805 -0.085124977 1.2010001
-0.043195583 -0.085337617 1.2040001
-0.041122608 -0.085408486 1.205
-0.039078508 -0.085550241 1.207
-0.037058037 -0.085762881 1.21
-0.034969307 -0.085833758 1.2110001
-0.03298559 -0.08618816 1.2160001
-0.031035122 -0.086684301 1.223
-0.13016251 -0.086410411 1.25
-0.12879395 -0.086963437 1.258
-0.12629047 -0.086756058 1.2550001
-0.12340194 -0.086272158 1.248
-0.12024654 -0.085580871 1.238
-0.11712614 -0.084889583 1.228
-0.11450889 -0.084543951 1.223
-0.11172538 -0.084060051 1.2160001
-0.10923675 -0.08378353 1.212
-0.10676214 -0.083507024 1.2080001
-0.10456141 -0.083437897 1.207
-0.10219443 -0.083230518 1.2040001
-0.10000419 -0.083161376 1.2030001
-0.097736083 -0.083023123 1.2010001
-0.095554605 -0.082953997 1.2
-0.093298748 -0.082815744 1.1980001
-0.09112601 -0.08274661 1.197
-0.08903116 -0.08274661 1.197
-0.086863682 -0.082677484 1.1960001
-0.08462882 -0.082539223 1.194
-0.082331844 -0.082331844 1.1910001
-0.080112733 -0.082193583 1.189
-0.078097515 -0.08226271 1.1900001
-0.075823277 -0.082055323 1.187
-0.073435292 -0.08170969 1.182
-0.070944041 -0.08122579 1.1750001
-0.068770438 -0.081087537 1.1730001
-0.06666071 -0.081018403 1.1720001
-0.064830117 -0.081294909 1.176
-0.063199043 -0.081847943 1.184
-0.061591592 -0.082470104 1.1930001
-0.059553616 -0.082539223 1.194
-0.057464015 -0.082539223 1.194
-0.055374417 -0.082539223 1.194
-0.053329445 -0.082608357 1.1950001
-0.051366724 -0.082815744 1.1980001
-0.04931125 -0.082884863 1.199
-0.047331028 -0.08309225 1.202
-0.045189805 -0.083023123 1.2010001
-0.043159705 -0.083161376 1.2030001
-0.041088481 -0.083230518 1.2040001
-0.039046131 -0.083368771 1.2060001
-0.037027407 -0.083576158 1.2090001
-0.034969307 -0.083714411 1.2110001
-0.03298559 -0.084060051 1.2160001
-0.031009743 -0.084474817 1.222
-0.13005839 -0.084155425 1.2490001
-0.12736063 -0.08381854 1.2440001
-0.12538479 -0.083953291 1.2460001
-0.1226109 -0.083549023 1.24
-0.11985803 -0.083144754 1.2340001
-0.11655386 -0.082336217 1.222
-0.11404074 -0.0820667 1.2180001
-0.11135786 -0.081662431 1.212
-0.10896637 -0.081460305 1.2090001
-0.10658538 -0.08125817 1.2060001
-0.10438816 -0.081190787 1.205
-0.10193979 -0.080921277 1.2010001
-0.09975481 -0.080853894 1.2
-0.097654708 -0.080853894 1.2
-0.095474973 -0.080786511 1.199
-0.093142986 -0.080584385 1.1960001
-0.09089762 -0.080449626 1.194
-0.088808022 -0.080449626 1.194
-0.086718418 -0.080449626 1.194
-0.084416196 -0.080247492 1.1910001
-0.082124457 -0.080045357 1.1880001
-0.079910599 -0.079910599 1.1860001
-0.077703744 -0.07977584 1.184
-0.075312249 -0.079438955 1.179
-0.072876133 -0.079034686 1.1730001
-0.070642151 -0.078832544 1.1700001
-0.068477303 -0.078697793 1.1680001
-0.066376321 -0.07863041 1.1670001
-0.064389102 -0.078697793 1.1680001
-0.062665261 -0.079102062 1.174
-0.061126944 -0.07977584 1.184
-0.059354108 -0.080180116 1.1900001
-0.057367764 -0.080314867 1.192
-0.055281661 -0.080314867 1.192
-0.053195558 -0.080314867 1.192
-0.051195215 -0.080449626 1.194
-0.049146742 -0.080517009 1.1950001
-0.047173522 -0.080719136 1.1980001
-0.045114547 -0.080786511 1.199
-0.043087952 -0.080921277 1.2010001
-0.040951975 -0.080853894 1.2
-0.038949002 -0.081056029 1.2030001
-0.036935531 -0.08125817 1.2060001
-0.034911558 -0.081460305 1.2090001
-0.03284996 -0.081595063 1.2110001
-0.030857489 -0.081931949 1.2160001
-0.12518354 -0.081641428 1.2440001
-0.12300643 -0.081641428 1.2440001
-0.12014941 -0.08118204 1.2370001
-0.11693538 -0.080460124 1.2260001
-0.11413438 -0.080000736 1.2190001
-0.11144974 -0.079606958 1.2130001
-0.10914663 -0.079475701 1.2110001
-0.10676214 -0.079278819 1.2080001
-0.10447479 -0.079147562 1.2060001
-0.10202466 -0.078885049 1.202
-0.099837936 -0.078819424 1.2010001
-0.097654708 -0.078753792 1.2
-0.095474973 -0.078688167 1.199
-0.093220867 -0.07855691 1.197
-0.090973757 -0.078425653 1.1950001
-0.088882409 -0.078425653 1.1950001
-0.086573169 -0.078228764 1.192
-0.084274426 -0.078031883 1.189
-0.082055323 -0.077900626 1.187
-0.079843223 -0.077769376 1.1850001
-0.07744123 -0.07744123 1.1800001
-0.075056739 -0.077113092 1.1750001
-0.072876133 -0.076981835 1.1730001
-0.07070253 -0.076850571 1.171
-0.068477303 -0.076653697 1.1680001
-0.066376321 -0.076588064 1.1670001
-0.064444229 -0.076719321 1.169
-0.062611893 -0.076981835 1.1730001
-0.060868807 -0.077375598 1.179
-0.059104726 -0.077769376 1.1850001
-0.057319637 -0.07816314 1.1910001
-0.055328041 -0.078294396 1.1930001
-0.053240187 -0.078294396 1.1930001
-0.051195215 -0.078360021 1.194
-0.049187873 -0.078491278 1.1960001
-0.047212899 -0.078688167 1.199
-0.045152176 -0.078753792 1.2
-0.043052074 -0.078753792 1.2
-0.040951975 -0.078753792 1.2
-0.038981378 -0.079016313 1.2040001
-0.036935531 -0.079147562 1.2060001
-0.034911558 -0.079344451 1.2090001
-0.032822832 -0.079410069 1.21
-0.030806733 -0.07967259 1.2140001
-0.028894765 -0.080263242 1.223
-0.12538479 -0.079592079 1.2460001
-0.12251203 -0.07914494 1.2390001
-0.11976089 -0.078761667 1.233
-0.11655386 -0.07805901 1.222
-0.11366623 -0.07754799 1.2140001
-0.11108223 -0.077228598 1.2090001
-0.10887624 -0.077164717 1.2080001
-0.106497 -0.076973081 1.205
-0.1042149 -0.076845333 1.2030001
-0.10185491 -0.076653697 1.2
-0.099588551 -0.076525934 1.1980001
-0.09749195 -0.076525934 1.1980001
-0.095315717 -0.07646206 1.197
-0.093065105 -0.076334298 1.1950001
-0.090745367 -0.076142661 1.192
-0.088584892 -0.076078795 1.1910001
-0.086282656 -0.075887159 1.1880001
-0.084132679 -0.075823277 1.187
-0.081847943 -0.075631641 1.184
-0.07950633 -0.075376131 1.1800001
-0.077113092 -0.075056739 1.1750001
-0.074928984 -0.074928984 1.1730001
-0.072876133 -0.074928984 1.1730001
-0.070642151 -0.074737348 1.1700001
-0.068360038 -0.074481837 1.166
-0.066376321 -0.074545711 1.1670001
-0.064554483 -0.074801229 1.171
-0.062718645 -0.075056739 1.1750001
-0.060662299 -0.075056739 1.1750001
-0.058805458 -0.075312249 1.179
-0.057030872 -0.075695522 1.1850001
-0.055142529 -0.075951025 1.189
-0.053061679 -0.075951025 1.189
-0.051023707 -0.076014914 1.1900001
-0.049064487 -0.07620655 1.1930001
-0.04705539 -0.076334298 1.1950001
-0.045001671 -0.076398179 1.1960001
-0.042908568 -0.076398179 1.1960001
-0.040815469 -0.076398179 1.1960001
-0.038851872 -0.076653697 1.2
-0.036813021 -0.076781444 1.202
-0.03482493 -0.077036969 1.2060001
-0.03274145 -0.077100836 1.207
-0.030705228 -0.077292472 1.21
-0.028753011 -0.077739619 1.217
-0.11995515 -0.076728068 1.235
-0.11674463 -0.076044664 1.2240001
-0.1139471 -0.075609758 1.217
-0.11117411 -0.075174868 1.21
-0.10878611 -0.074988484 1.207
-0.106497 -0.074864231 1.205
-0.10430153 -0.074802108 1.2040001
-0.10202466 -0.074677847 1.202
-0.099671669 -0.074491456 1.199
-0.09749195 -0.074429341 1.1980001
-0.095315717 -0.074367203 1.197
-0.093142986 -0.07430508 1.1960001
-0.090821505 -0.074118696 1.1930001
-0.088510513 -0.073932312 1.1900001
-0.086210027 -0.073745921 1.187
-0.084061801 -0.073683806 1.1860001
-0.081847943 -0.073559545 1.184
-0.079438955 -0.0732489 1.179
-0.077113092 -0.073000394 1.1750001
-0.075056739 -0.073000394 1.1750001
-0.073062517 -0.073062517 1.176
-0.070823289 -0.072876133 1.1730001
-0.068535931 -0.072627619 1.169
-0.066603832 -0.072751872 1.171
-0.064885251 -0.073124647 1.177
-0.063092291 -0.073435292 1.182
-0.06076555 -0.073124647 1.177
-0.05875558 -0.073186778 1.1780001
-0.05688649 -0.073435292 1.182
-0.055049777 -0.073745921 1.187
-0.052972425 -0.073745921 1.187
-0.050895076 -0.073745921 1.187
-0.04902336 -0.074056566 1.192
-0.047016013 -0.074180819 1.194
-0.045001671 -0.07430508 1.1960001
-0.042908568 -0.07430508 1.1960001
-0.040849593 -0.074367203 1.197
-0.038851872 -0.074553594 1.2
-0.03684365 -0.07473997 1.2030001
-0.034853805 -0.074988484 1.207
-0.032768577 -0.075050615 1.2080001
-0.030679855 -0.075112745 1.2090001
-0.028682133 -0.07542339 1.2140001
-0.11655386 -0.073781803 1.222
-0.11385349 -0.073419541 1.2160001
-0.11117411 -0.073057272 1.21
-0.10878611 -0.072876133 1.207
-0.10640863 -0.072695009 1.2040001
-0.10412826 -0.072574243 1.202
-0.10185491 -0.072453491 1.2
-0.099505417 -0.072272353 1.197
-0.09741056 -0.072272353 1.197
-0.095076822 -0.072091222 1.194
-0.09283147 -0.071970463 1.192
-0.090440862 -0.07172896 1.1880001
-0.088213004 -0.071608201 1.1860001
-0.086064771 -0.071547821 1.1850001
-0.083920039 -0.071487442 1.184
-0.081778817 -0.07142707 1.1830001
-0.079371579 -0.07112518 1.1780001
-0.077244341 -0.0710648 1.177
-0.075120613 -0.071004413 1.176
-0.073062517 -0.071004413 1.176
-0.07070253 -0.07070253 1.171
-0.068535931 -0.070581771 1.169
-0.06666071 -0.07076291 1.1720001
-0.064830117 -0.071004413 1.176
-0.062932156 -0.071185552 1.179
-0.060662299 -0.070944041 1.1750001
-0.058655821 -0.071004413 1.176
-0.056742106 -0.071185552 1.179
-0.054817893 -0.07136669 1.182
-0.05279392 -0.07142707 1.1830001
-0.050723568 -0.07142707 1.1830001
-0.048817724 -0.071668573 1.187
-0.046858508 -0.071849711 1.1900001
-0.044888787 -0.07203085 1.1930001
-0.042800937 -0.07203085 1.1930001
-0.040747214 -0.072091222 1.194
-0.038754743 -0.072272353 1.197
-0.036813021 -0.072574243 1.202
-0.034796052 -0.072755381 1.205
-0.03274145 -0.072876133 1.207
-0.0306291 -0.072876133 1.207
-0.028587628 -0.073057272 1.21
-0.11684 -0.071819082 1.225
-0.11404074 -0.071408689 1.2180001
-0.11144974 -0.071115553 1.2130001
-0.1090565 -0.07093966 1.21
-0.10667376 -0.070763782 1.207
-0.10430153 -0.070587903 1.2040001
-0.10193979 -0.070412017 1.2010001
-0.099588551 -0.070236139 1.1980001
-0.09741056 -0.07017751 1.197
-0.095076822 -0.070001617 1.194
-0.09283147 -0.06988436 1.192
-0.090440862 -0.06964986 1.1880001
-0.088213004 -0.069532603 1.1860001
-0.086064771 -0.069473974 1.1850001
-0.083990924 -0.069473974 1.1850001
-0.081778817 -0.069356717 1.1830001
-0.079573713 -0.06923946 1.1810001
-0.07744123 -0.069180831 1.1800001
-0.075248376 -0.069063574 1.1780001
-0.073000394 -0.068887696 1.1750001
-0.070823289 -0.068770438 1.1730001
-0.068770438 -0.068770438 1.1730001
-0.06683135 -0.068887696 1.1750001
-0.064830117 -0.068946317 1.176
-0.062825404 -0.069004945 1.177
-0.060713924 -0.068946317 1.176
-0.058705702 -0.069004945 1.177
-0.056790233 -0.069180831 1.1800001
-0.054817893 -0.069298089 1.182
-0.05279392 -0.069356717 1.1830001
-0.050723568 -0.069356717 1.1830001
-0.048776601 -0.069532603 1.1860001
-0.046819128 -0.069708481 1.189
-0.044851158 -0.06988436 1.192
-0.042800937 -0.069942996 1.1930001
-0.040781341 -0.070060246 1.1950001
-0.038754743 -0.07017751 1.197
-0.036813021 -0.070470646 1.202
-0.034796052 -0.070646524 1.205
-0.03274145 -0.070763782 1.207
-0.030705228 -0.07093966 1.21
-0.028705757 -0.071232803 1.215
-0.11684 -0.069675229 1.225
-0.114228 -0.069390841 1.22
-0.1116335 -0.069106452 1.215
-0.10914663 -0.068878941 1.2110001
-0.10658538 -0.06859456 1.2060001
-0.10404164 -0.068310164 1.2010001
-0.10151539 -0.068025775 1.1960001
-0.099256024 -0.06791202 1.194
-0.097085051 -0.067855142 1.1930001
-0.094917566 -0.067798264 1.192
-0.092597827 -0.067627631 1.189
-0.090288602 -0.067456998 1.1860001
-0.087989867 -0.067286365 1.1830001
-0.085846886 -0.067229487 1.182
-0.08363653 -0.067115732 1.1800001
-0.08143317 -0.067001984 1.1780001
-0.079236813 -0.066888221 1.176
-0.077244341 -0.066945098 1.177
-0.075120613 -0.066888221 1.176
-0.07281401 -0.06666071 1.1720001
-0.070581771 -0.066490076 1.169
-0.06859456 -0.066546954 1.1700001
-0.066603832 -0.066603832 1.171
-0.064554483 -0.066603832 1.171
-0.062558517 -0.06666071 1.1720001
-0.060559046 -0.066717587 1.1730001
-0.058655821 -0.066888221 1.176
-0.056693986 -0.067001984 1.1780001
-0.054725137 -0.067115732 1.1800001
-0.052660037 -0.067115732 1.1800001
-0.050594937 -0.067115732 1.1800001
-0.048653223 -0.067286365 1.1830001
-0.046701003 -0.067456998 1.1860001
-0.044738278 -0.067627631 1.189
-0.042693306 -0.067684516 1.1900001
-0.040678959 -0.067798264 1.192
-0.038689986 -0.067968898 1.1950001
-0.036751769 -0.068253286 1.2
-0.034738299 -0.068423927 1.2030001
-0.032714326 -0.06859456 1.2060001
-0.030705228 -0.068822064 1.21
-0.028800262 -0.069333971 1.2190001
-0.11450889 -0.067421123 1.223
-0.11172538 -0.067035228 1.2160001
-0.10914663 -0.066759594 1.2110001
-0.10667376 -0.066539079 1.207
-0.10412826 -0.066263437 1.202
-0.10160027 -0.065987803 1.197
-0.099256024 -0.065822415 1.194
-0.096922293 -0.065657042 1.1910001
-0.094837949 -0.065657042 1.1910001
-0.092597827 -0.065546781 1.189
-0.090440862 -0.065491654 1.1880001
-0.087989867 -0.06521602 1.1830001
-0.085846886 -0.065160885 1.182
-0.083494775 -0.064940378 1.1780001
-0.081364043 -0.064885251 1.177
-0.079102062 -0.064719863 1.174
-0.076981835 -0.064664744 1.1730001
-0.074737348 -0.064499363 1.1700001
-0.072565503 -0.064389102 1.1680001
-0.07046102 -0.064333975 1.1670001
-0.068477303 -0.064389102 1.1680001
-0.066433199 -0.064389102 1.1680001
-0.064389102 -0.064389102 1.1680001
-0.062398378 -0.064444229 1.169
-0.060507413 -0.064609617 1.1720001
-0.05860595 -0.06477499 1.1750001
-0.056597725 -0.064830117 1.176
-0.054725137 -0.065050632 1.1800001
-0.052704666 -0.065105766 1.1810001
-0.050680693 -0.065160885 1.182
-0.048653223 -0.06521602 1.1830001
-0.046701003 -0.065381408 1.1860001
-0.044700652 -0.065491654 1.1880001
-0.042657427 -0.065546781 1.189
-0.040678959 -0.065712161 1.192
-0.038722366 -0.065932676 1.1960001
-0.036782399 -0.066208318 1.2010001
-0.034767177 -0.066373698 1.2040001
-0.03274145 -0.066539079 1.207
-0.030781358 -0.066869847 1.2130001
-0.11190914 -0.065013885 1.2180001
-0.10914663 -0.064640239 1.2110001
-0.106497 -0.064319976 1.205
-0.10404164 -0.064106472 1.2010001
-0.10151539 -0.063839577 1.1960001
-0.099089772 -0.063626066 1.192
-0.096759535 -0.063465931 1.189
-0.094599061 -0.063412555 1.1880001
-0.092364199 -0.063305803 1.1860001
-0.090212472 -0.063252419 1.1850001
-0.087841108 -0.063038915 1.1810001
-0.085556373 -0.062878788 1.1780001
-0.083282135 -0.062718645 1.1750001
-0.081018403 -0.062558517 1.1720001
-0.078765169 -0.062398378 1.169
-0.076522432 -0.062238246 1.166
-0.074354075 -0.062131494 1.164
-0.072254859 -0.062078118 1.1630001
-0.07015913 -0.062024739 1.1620001
-0.06818416 -0.062078118 1.1630001
-0.06609194 -0.062024739 1.1620001
-0.064058334 -0.062024739 1.1620001
-0.062078118 -0.062078118 1.1630001
-0.060146026 -0.06218487 1.1650001
-0.058256809 -0.062345009 1.1680001
-0.056357086 -0.062505133 1.171
-0.054493252 -0.062718645 1.1750001
-0.052526154 -0.062825404 1.177
-0.050509185 -0.062878788 1.1780001
-0.048529837 -0.062985532 1.1800001
-0.04658287 -0.063145667 1.1830001
-0.044625401 -0.063305803 1.1860001
-0.042585675 -0.063359179 1.187
-0.040610708 -0.063519314 1.1900001
-0.038625237 -0.063679442 1.1930001
-0.036659889 -0.063892946 1.197
-0.03470942 -0.064159833 1.202
-0.032714326 -0.064373352 1.2060001
-0.030806733 -0.064800374 1.2140001
-0.11200102 -0.062933907 1.2190001
-0.10923675 -0.062572517 1.212
-0.10658538 -0.062262751 1.2060001
-0.1042149 -0.062107868 1.2030001
-0.10168515 -0.061849732 1.1980001
-0.099256024 -0.061643217 1.194
-0.096759535 -0.06138508 1.189
-0.094519429 -0.06128183 1.187
-0.092286319 -0.061178569 1.1850001
-0.090136342 -0.061126944 1.184
-0.087841108 -0.060972068 1.1810001
-0.085629001 -0.060868807 1.179
-0.083282135 -0.060662299 1.1750001
-0.081087537 -0.060559046 1.1730001
-0.078765169 -0.06035253 1.169
-0.076588064 -0.06024928 1.1670001
-0.074354075 -0.060094394 1.164
-0.072316982 -0.060094394 1.164
-0.07015913 -0.059991144 1.1620001
-0.068125531 -0.059991144 1.1620001
-0.06609194 -0.059991144 1.1620001
-0.064113468 -0.060042769 1.1630001
-0.062078118 -0.060042769 1.1630001
-0.060042769 -0.060042769 1.1630001
-0.058107179 -0.060146026 1.1650001
-0.056212708 -0.060300905 1.1680001
-0.054354116 -0.060507413 1.1720001
-0.052436899 -0.060662299 1.1750001
-0.050466307 -0.06076555 1.177
-0.048529837 -0.060920436 1.1800001
-0.04658287 -0.061075319 1.1830001
-0.044663023 -0.06128183 1.187
-0.042621553 -0.061333455 1.1880001
-0.040644836 -0.061488338 1.1910001
-0.038689986 -0.061694849 1.1950001
-0.036690518 -0.061849732 1.1980001
-0.034680545 -0.062004618 1.2010001
-0.032714326 -0.062262751 1.2060001
-0.03083211 -0.062727399 1.215
-0.11200102 -0.06080056 1.2190001
-0.10932689 -0.060501292 1.2130001
-0.106497 -0.060102273 1.205
-0.10404164 -0.059902765 1.2010001
-0.10160027 -0.059703253 1.197
-0.099256024 -0.059553616 1.194
-0.096840918 -0.059354108 1.1900001
-0.094519429 -0.059204478 1.187
-0.092208438 -0.05905484 1.184
-0.089984089 -0.058955088 1.182
-0.087766729 -0.058855332 1.1800001
-0.085556373 -0.05875558 1.1780001
-0.083282135 -0.05860595 1.1750001
-0.081018403 -0.058456313 1.1720001
-0.078832544 -0.058356561 1.1700001
-0.076719321 -0.058306683 1.169
-0.074673474 -0.058306683 1.169
-0.072627619 -0.058306683 1.169
-0.07046102 -0.058206931 1.1670001
-0.068418667 -0.058206931 1.1670001
-0.066376321 -0.058206931 1.1670001
-0.064389102 -0.058256809 1.1680001
-0.062345009 -0.058256809 1.1680001
-0.060197648 -0.058157045 1.166
-0.058157045 -0.058157045 1.166
-0.056212708 -0.058256809 1.1680001
-0.054214984 -0.058306683 1.169
-0.052258391 -0.058406439 1.171
-0.050294802 -0.058506198 1.1730001
-0.04848871 -0.058805458 1.179
-0.04658287 -0.05900497 1.1830001
-0.044663023 -0.059204478 1.187
-0.042657427 -0.05930423 1.189
-0.040678959 -0.05945386 1.192
-0.038689986 -0.059603497 1.1950001
-0.036690518 -0.059753127 1.1980001
-0.034680545 -0.059902765 1.2010001
-0.032687198 -0.060102273 1.205
-0.030857489 -0.060650922 1.2160001
-0.11172538 -0.05852282 1.2160001
-0.10914663 -0.058282182 1.2110001
-0.10640863 -0.057945296 1.2040001
-0.10395501 -0.057752781 1.2
-0.10160027 -0.057608396 1.197
-0.099256024 -0.057464015 1.194
-0.096840918 -0.05727151 1.1900001
-0.094439805 -0.057078999 1.1860001
-0.092130564 -0.056934617 1.1830001
-0.089755692 -0.056742106 1.179
-0.087469205 -0.056597725 1.176
-0.085338488 -0.056549601 1.1750001
-0.083211258 -0.056501471 1.174
-0.081156656 -0.056501471 1.174
-0.078967303 -0.056405213 1.1720001
-0.076981835 -0.056453347 1.1730001
-0.07486511 -0.056405213 1.1720001
-0.07281401 -0.056405213 1.1720001
-0.07070253 -0.056357086 1.171
-0.06859456 -0.056308966 1.1700001
-0.066546954 -0.056308966 1.1700001
-0.064444229 -0.056260832 1.169
-0.062558517 -0.056405213 1.1720001
-0.060404163 -0.056308966 1.1700001
-0.058406439 -0.056357086 1.171
-0.056260832 -0.056260832 1.169
-0.054214984 -0.056260832 1.169
-0.052213769 -0.056308966 1.1700001
-0.05025192 -0.056405213 1.1720001
-0.048447587 -0.056693986 1.1780001
-0.046543494 -0.05688649 1.182
-0.044625401 -0.057078999 1.1860001
-0.042621553 -0.057175256 1.1880001
-0.040713087 -0.057415891 1.1930001
-0.038722366 -0.057560276 1.1960001
-0.036751769 -0.057752781 1.2
-0.03470942 -0.057849035 1.202
-0.032714326 -0.058041546 1.2060001
-0.11154163 -0.056301963 1.2140001
-0.10896637 -0.056070078 1.2090001
-0.10632025 -0.055791814 1.2030001
-0.10386837 -0.055606302 1.199
-0.10143051 -0.055420794 1.1950001
-0.099256024 -0.055374417 1.194
-0.096840918 -0.055188909 1.1900001
-0.094439805 -0.055003401 1.1860001
-0.092052683 -0.054817893 1.182
-0.089679569 -0.054632384 1.1780001
-0.087394841 -0.054493252 1.1750001
-0.085265853 -0.054446869 1.174
-0.083140381 -0.0544005 1.1730001
-0.081156656 -0.054446869 1.174
-0.079102062 -0.054446869 1.174
-0.076981835 -0.0544005 1.1730001
-0.074737348 -0.054261364 1.1700001
-0.072627619 -0.054214984 1.169
-0.070642151 -0.054261364 1.1700001
-0.06859456 -0.054261364 1.1700001
-0.066490076 -0.054214984 1.169
-0.064389102 -0.054168612 1.1680001
-0.062451757 -0.054261364 1.1700001
-0.06045578 -0.054307736 1.171
-0.058506198 -0.0544005 1.1730001
-0.056405213 -0.054354116 1.1720001
-0.054307736 -0.054307736 1.171
-0.052213769 -0.054261364 1.1700001
-0.050209042 -0.054307736 1.171
-0.048365328 -0.054539625 1.176
-0.046504118 -0.054771516 1.1810001
-0.044587772 -0.054957025 1.1850001
-0.042585675 -0.055049777 1.187
-0.040644836 -0.055235289 1.1910001
-0.038689986 -0.055420794 1.1950001
-0.036751769 -0.055652682 1.2
-0.034767177 -0.055838194 1.2040001
-0.03284996 -0.056162834 1.2110001
-0.11404074 -0.054355871 1.2180001
-0.11117411 -0.05399885 1.21
-0.10869599 -0.053820346 1.2060001
-0.10614349 -0.053597208 1.2010001
-0.10369512 -0.053418696 1.197
-0.10134563 -0.053284816 1.194
-0.099006653 -0.053150937 1.1910001
-0.096759535 -0.053061679 1.189
-0.094360173 -0.052883171 1.1850001
-0.092052683 -0.052749291 1.182
-0.089603439 -0.052526154 1.177
-0.087246083 -0.052347649 1.1730001
-0.085047968 -0.052258391 1.171
-0.082998618 -0.052258391 1.171
-0.081087537 -0.052347649 1.1730001
-0.078832544 -0.052213769 1.1700001
-0.076522432 -0.052035253 1.166
-0.074290209 -0.051901374 1.1630001
-0.072192729 -0.051856749 1.1620001
-0.07015913 -0.051856749 1.1620001
-0.06818416 -0.051901374 1.1630001
-0.066148818 -0.051901374 1.1630001
-0.064003207 -0.05181212 1.161
-0.062078118 -0.051901374 1.1630001
-0.060094394 -0.051946003 1.164
-0.058256809 -0.052124511 1.1680001
-0.056164581 -0.052079882 1.1670001
-0.054168612 -0.052124511 1.1680001
-0.052079882 -0.052079882 1.1670001
-0.050080415 -0.052124511 1.1680001
-0.048241951 -0.052347649 1.1730001
-0.046307229 -0.052481528 1.176
-0.044437267 -0.052704666 1.1810001
-0.042442169 -0.05279392 1.1830001
-0.040576581 -0.053061679 1.189
-0.038625237 -0.053240187 1.1930001
-0.036721144 -0.05350795 1.199
-0.03470942 -0.053641833 1.202
-0.032768577 -0.053909596 1.2080001
-0.11404074 -0.052224267 1.2180001
-0.11154163 -0.052052759 1.2140001
-0.10896637 -0.051838376 1.2090001
-0.10640863 -0.051623989 1.2040001
-0.10378175 -0.051366724 1.1980001
-0.10134563 -0.051195215 1.194
-0.099089772 -0.051109459 1.192
-0.096840918 -0.051023707 1.1900001
-0.094519429 -0.050895076 1.187
-0.092052683 -0.050680693 1.182
-0.089679569 -0.050509185 1.1780001
-0.087320454 -0.050337672 1.174
-0.085193232 -0.050294802 1.1730001
-0.082998618 -0.050209042 1.171
-0.080949277 -0.050209042 1.171
-0.078765169 -0.050123289 1.169
-0.076456808 -0.049951781 1.1650001
-0.074290209 -0.049866032 1.1630001
-0.072192729 -0.04982315 1.1620001
-0.07015913 -0.04982315 1.1620001
-0.06818416 -0.049866032 1.1630001
-0.066148818 -0.049866032 1.1630001
-0.064058334 -0.04982315 1.1620001
-0.062024739 -0.04982315 1.1620001
-0.060042769 -0.049866032 1.1630001
-0.058157045 -0.049994655 1.166
-0.056164581 -0.050037537 1.1670001
-0.054214984 -0.050123289 1.169
-0.052169137 -0.050123289 1.169
-0.050209042 -0.050209042 1.171
-0.048283074 -0.050337672 1.174
-0.046385989 -0.050509185 1.1780001
-0.044474892 -0.050680693 1.182
-0.042478044 -0.050766442 1.184
-0.040542454 -0.050937958 1.1880001
-0.038592856 -0.051109459 1.192
-0.036751769 -0.05145248 1.2
-0.034767177 -0.051623989 1.2040001
-0.032822832 -0.051881246 1.21
-0.11404074 -0.050092664 1.2180001
-0.11144974 -0.049887028 1.2130001
-0.10887624 -0.049681395 1.2080001
-0.10632025 -0.049475759 1.2030001
-0.10378175 -0.049270123 1.1980001
-0.10134563 -0.049105614 1.194
-0.099089772 -0.04902336 1.192
-0.096759535 -0.048899978 1.189
-0.094360173 -0.048735473 1.1850001
-0.091896929 -0.048529837 1.1800001
-0.089451186 -0.048324201 1.1750001
-0.087171696 -0.048200823 1.1720001
-0.08483009 -0.048036315 1.1680001
-0.082644224 -0.04795406 1.166
-0.080465376 -0.047871806 1.164
-0.078360908 -0.047830679 1.1630001
-0.076194294 -0.047748424 1.161
-0.074162446 -0.047748424 1.161
-0.072068475 -0.047707301 1.1600001
-0.07009875 -0.047748424 1.161
-0.068008281 -0.047707301 1.1600001
-0.065978184 -0.047707301 1.1600001
-0.064003207 -0.047748424 1.161
-0.062024739 -0.047789551 1.1620001
-0.059991144 -0.047789551 1.1620001
-0.057957541 -0.047789551 1.1620001
-0.055923946 -0.047789551 1.1620001
-0.054029476 -0.047912937 1.1650001
-0.052079882 -0.047995187 1.1670001
-0.050123289 -0.048077438 1.169
-0.048200823 -0.048200823 1.1720001
-0.046267856 -0.048324201 1.1750001
-0.044362012 -0.04848871 1.179
-0.04237042 -0.048570964 1.1810001
-0.040440075 -0.048735473 1.1850001
-0.038495727 -0.048899978 1.189
-0.036598638 -0.049146742 1.1950001
-0.034680545 -0.049393509 1.2010001
-0.032687198 -0.049558014 1.205
-0.11172538 -0.047882307 1.2160001
-0.1090565 -0.047646042 1.21
-0.106497 -0.04744916 1.205
-0.10404164 -0.047291655 1.2010001
-0.10151539 -0.04709477 1.1960001
-0.099172905 -0.046976641 1.1930001
-0.096759535 -0.046819128 1.189
-0.094360173 -0.046661623 1.1850001
-0.091896929 -0.046464738 1.1800001
-0.089451186 -0.046267856 1.1750001
-0.087171696 -0.046149723 1.1720001
-0.084902711 -0.046031591 1.169
-0.082644224 -0.045913462 1.166
-0.080465376 -0.045834705 1.164
-0.078428276 -0.045834705 1.164
-0.076325551 -0.045795336 1.1630001
-0.074290209 -0.045795336 1.1630001
-0.072192729 -0.045755953 1.1620001
-0.070219509 -0.045795336 1.1630001
-0.06818416 -0.045795336 1.1630001
-0.066148818 -0.045795336 1.1630001
-0.064113468 -0.045795336 1.1630001
-0.062078118 -0.045795336 1.1630001
-0.059991144 -0.045755953 1.1620001
-0.058007423 -0.045795336 1.1630001
-0.055972073 -0.045795336 1.1630001
-0.054075852 -0.045913462 1.166
-0.052169137 -0.046031591 1.169
-0.05025192 -0.046149723 1.1720001
-0.048283074 -0.046228476 1.174
-0.046346609 -0.046346609 1.177
-0.044437267 -0.046504118 1.1810001
-0.042478044 -0.046622243 1.184
-0.040508326 -0.046740375 1.187
-0.038592856 -0.046937261 1.192
-0.036659889 -0.047134146 1.197
-0.034738299 -0.047370408 1.2030001
-0.032768577 -0.047567293 1.2080001
-0.11172538 -0.045754205 1.2160001
-0.10914663 -0.045566071 1.2110001
-0.106497 -0.045340311 1.205
-0.10404164 -0.045189805 1.2010001
-0.10143051 -0.044964042 1.1950001
-0.099006653 -0.044813536 1.1910001
-0.09667816 -0.044700652 1.1880001
-0.094200917 -0.044512521 1.1830001
-0.091896929 -0.044399638 1.1800001
-0.089451186 -0.044211503 1.1750001
-0.087171696 -0.044098627 1.1720001
-0.084757462 -0.043910492 1.1670001
-0.082502477 -0.043797608 1.164
-0.080327116 -0.043722358 1.1620001
-0.078293525 -0.043722358 1.1620001
-0.076259919 -0.043722358 1.1620001
-0.074226327 -0.043722358 1.1620001
-0.072192729 -0.043722358 1.1620001
-0.07015913 -0.043722358 1.1620001
-0.068125531 -0.043722358 1.1620001
-0.066148818 -0.043759983 1.1630001
-0.064058334 -0.043722358 1.1620001
-0.062024739 -0.043722358 1.1620001
-0.059887886 -0.043647103 1.1600001
-0.057907663 -0.043684728 1.161
-0.055875815 -0.043684728 1.161
-0.053890344 -0.043722358 1.1620001
-0.051990632 -0.043835238 1.1650001
-0.050166167 -0.044023372 1.1700001
-0.048283074 -0.044173878 1.174
-0.046346609 -0.044286758 1.177
-0.044362012 -0.044362012 1.179
-0.042442169 -0.044512521 1.1830001
-0.040474202 -0.044625401 1.1860001
-0.038592856 -0.044851158 1.192
-0.036598638 -0.044964042 1.1950001
-0.034651671 -0.045152176 1.2
-0.032687198 -0.045340311 1.205
-0.11200102 -0.043733735 1.2190001
-0.10950715 -0.043590225 1.215
-0.1069389 -0.043410841 1.21
-0.10438816 -0.043231457 1.205
-0.10160027 -0.042944442 1.197
-0.099256024 -0.042836811 1.194
-0.096922293 -0.042729184 1.1910001
-0.094439805 -0.0425498 1.1860001
-0.092052683 -0.042406291 1.182
-0.089679569 -0.042262789 1.1780001
-0.087394841 -0.042155158 1.1750001
-0.085047968 -0.042011648 1.171
-0.082856864 -0.041939896 1.169
-0.080741897 -0.041904021 1.1680001
-0.07863041 -0.041868143 1.1670001
-0.076522432 -0.041832265 1.166
-0.074417964 -0.04179639 1.1650001
-0.072316982 -0.041760512 1.164
-0.070279881 -0.041760512 1.164
-0.068301417 -0.04179639 1.1650001
-0.066262566 -0.04179639 1.1650001
-0.064113468 -0.041724637 1.1630001
-0.062024739 -0.041688759 1.1620001
-0.059991144 -0.041688759 1.1620001
-0.058057293 -0.041760512 1.164
-0.0560202 -0.041760512 1.164
-0.054029476 -0.04179639 1.1650001
-0.052079882 -0.041868143 1.1670001
-0.050294802 -0.042083401 1.1730001
-0.048365328 -0.042191029 1.176
-0.046464738 -0.042334538 1.1800001
-0.044437267 -0.04237042 1.1810001
-0.042513922 -0.042513922 1.1850001
-0.040576581 -0.042657427 1.189
-0.038689986 -0.04287269 1.1950001
-0.036690518 -0.042980321 1.1980001
-0.03470942 -0.043123826 1.202
-0.032768577 -0.043339089 1.2080001
-0.10959728 -0.041498002 1.2160001
-0.10685053 -0.041259114 1.2090001
-0.1042149 -0.041054353 1.2030001
-0.10168515 -0.04088372 1.1980001
-0.099172905 -0.040713087 1.1930001
-0.096759535 -0.040576581 1.189
-0.094280541 -0.040405948 1.184
-0.09197481 -0.040303569 1.1810001
-0.089679569 -0.040201191 1.1780001
-0.087394841 -0.040098809 1.1750001
-0.085120596 -0.039996427 1.1720001
-0.082927741 -0.039928176 1.1700001
-0.080741897 -0.039859924 1.1680001
-0.078563027 -0.039791662 1.166
-0.076391175 -0.039723411 1.164
-0.074354075 -0.039723411 1.164
-0.072192729 -0.03965516 1.1620001
-0.07009875 -0.039621033 1.161
-0.068066902 -0.039621033 1.161
-0.065978184 -0.039586905 1.1600001
-0.06394808 -0.039586905 1.1600001
-0.061917983 -0.039586905 1.1600001
-0.059991144 -0.03965516 1.1620001
-0.058057293 -0.039723411 1.164
-0.0560202 -0.039723411 1.164
-0.0539831 -0.039723411 1.164
-0.052035253 -0.039791662 1.166
-0.050209042 -0.039962295 1.171
-0.048283074 -0.040064678 1.174
-0.046385989 -0.040201191 1.1780001
-0.044362012 -0.040235311 1.179
-0.042478044 -0.040405948 1.184
-0.040542454 -0.040542454 1.1880001
-0.038657613 -0.040747214 1.194
-0.036690518 -0.04088372 1.1980001
-0.034680545 -0.040986102 1.2010001
-0.032768577 -0.041224986 1.2080001
-0.10986767 -0.039467029 1.2190001
-0.10711566 -0.03924039 1.212
-0.10456141 -0.039078508 1.207
-0.10210954 -0.038949002 1.2030001
-0.099671669 -0.038819492 1.199
-0.097085051 -0.038625237 1.1930001
-0.094519429 -0.038430978 1.187
-0.092052683 -0.038269091 1.182
-0.089679569 -0.038139589 1.1780001
-0.087543592 -0.038107213 1.177
-0.085338488 -0.03804246 1.1750001
-0.083140381 -0.037977707 1.1730001
-0.081018403 -0.037945326 1.1720001
-0.078697793 -0.037815824 1.1680001
-0.076522432 -0.037751067 1.166
-0.074354075 -0.037686314 1.164
-0.072254859 -0.037653942 1.1630001
-0.07009875 -0.037589185 1.161
-0.067949645 -0.037524432 1.159
-0.065864421 -0.037492059 1.1580001
-0.063837834 -0.037492059 1.1580001
-0.061917983 -0.037556808 1.1600001
-0.059991144 -0.037621565 1.1620001
-0.058157045 -0.037751067 1.166
-0.056116447 -0.037751067 1.166
-0.054168612 -0.037815824 1.1680001
-0.052169137 -0.037848197 1.169
-0.050294802 -0.037977707 1.1730001
-0.048365328 -0.038074832 1.176
-0.046464738 -0.038204342 1.1800001
-0.044474892 -0.038269091 1.182
-0.042621553 -0.03846335 1.1880001
-0.040678959 -0.038592856 1.192
-0.038754743 -0.038754743 1.197
-0.036721144 -0.038819492 1.199
-0.034738299 -0.038949002 1.2030001
-0.10711566 -0.037119288 1.212
-0.10447479 -0.036935531 1.2060001
-0.10210954 -0.03684365 1.2030001
-0.099588551 -0.036690518 1.1980001
-0.096922293 -0.036476135 1.1910001
-0.094360173 -0.036292374 1.1850001
-0.09197481 -0.036169868 1.1810001
-0.089603439 -0.036047358 1.177
-0.087394841 -0.035986111 1.1750001
-0.085265853 -0.035955481 1.174
-0.083069503 -0.035894226 1.1720001
-0.080949277 -0.035863601 1.171
-0.07863041 -0.035741094 1.1670001
-0.076456808 -0.035679843 1.1650001
-0.074226327 -0.035587963 1.1620001
-0.072130598 -0.035557337 1.161
-0.069917619 -0.03546546 1.1580001
-0.067773767 -0.035404202 1.156
-0.065750666 -0.035404202 1.156
-0.063727573 -0.035404202 1.156
-0.061811231 -0.03546546 1.1580001
-0.059939511 -0.035557337 1.161
-0.058057293 -0.035649218 1.164
-0.056068327 -0.035679843 1.1650001
-0.054075852 -0.035710469 1.166
-0.052035253 -0.035710469 1.166
-0.050123289 -0.035802349 1.169
-0.048283074 -0.035955481 1.174
-0.046464738 -0.036139242 1.1800001
-0.044474892 -0.036200494 1.182
-0.042585675 -0.036353625 1.187
-0.040678959 -0.036506757 1.192
-0.038754743 -0.036659889 1.197
-0.036751769 -0.036751769 1.2
-0.034796052 -0.036904905 1.205
-0.10482129 -0.034940433 1.21
-0.10244906 -0.034853805 1.207
-0.099921063 -0.03470942 1.202
-0.097329192 -0.034536164 1.1960001
-0.094678678 -0.034334026 1.189
-0.092286319 -0.034218524 1.1850001
-0.089831829 -0.034074143 1.1800001
-0.087617971 -0.034016389 1.1780001
-0.085338488 -0.033929758 1.1750001
-0.083140381 -0.033872008 1.1730001
-0.080949277 -0.033814255 1.171
-0.078765169 -0.033756498 1.169
-0.076653697 -0.033727624 1.1680001
-0.074417964 -0.033640996 1.1650001
-0.072254859 -0.033583246 1.1630001
-0.070038378 -0.033496615 1.1600001
-0.067949645 -0.033467736 1.159
-0.065921299 -0.033467736 1.159
-0.063892953 -0.033467736 1.159
-0.061917983 -0.033496615 1.1600001
-0.059991144 -0.033554364 1.1620001
-0.058157045 -0.03366987 1.166
-0.056164581 -0.033698749 1.1670001
-0.054168612 -0.033727624 1.1680001
-0.052169137 -0.033756498 1.169
-0.05025192 -0.03384313 1.1720001
-0.048406456 -0.033987515 1.177
-0.04658287 -0.03416077 1.1830001
-0.044663023 -0.034276277 1.187
-0.042765059 -0.034420658 1.192
-0.040781341 -0.034507286 1.1950001
-0.038884249 -0.034680545 1.2010001
-0.036904905 -0.034796052 1.205
-0.10490793 -0.03284996 1.2110001
-0.10236418 -0.032714326 1.2060001
-0.099837936 -0.032578696 1.2010001
-0.097166426 -0.03238881 1.194
-0.094678678 -0.03225318 1.189
-0.092364199 -0.032171801 1.1860001
-0.089984089 -0.032063294 1.182
-0.087766729 -0.032009043 1.1800001
-0.085411109 -0.031900536 1.176
-0.083140381 -0.031819157 1.1730001
-0.080949277 -0.031764902 1.171
-0.078765169 -0.031710654 1.169
-0.076653697 -0.031683527 1.1680001
-0.074481837 -0.031629272 1.166
-0.072316982 -0.03157502 1.164
-0.07015913 -0.031520769 1.1620001
-0.068066902 -0.031493641 1.161
-0.066035055 -0.031493641 1.161
-0.064058334 -0.031520769 1.1620001
-0.062024739 -0.031520769 1.1620001
-0.060042769 -0.031547893 1.1630001
-0.058107179 -0.031602148 1.1650001
-0.056116447 -0.031629272 1.166
-0.054122232 -0.031656399 1.1670001
-0.052124511 -0.031683527 1.1680001
-0.05025192 -0.03179203 1.1720001
-0.048447587 -0.031954788 1.1780001
-0.04658287 -0.032090422 1.1830001
-0.044663023 -0.032198925 1.187
-0.042729184 -0.032307431 1.1910001
-0.040781341 -0.032415938 1.1950001
-0.038949002 -0.032632947 1.2030001
-0.037058037 -0.032822832 1.21
-0.10304322 -0.030806733 1.2140001
-0.10033671 -0.0306291 1.207
-0.097817458 -0.030502219 1.202
-0.095156454 -0.030324586 1.1950001
-0.092675716 -0.030197704 1.1900001
-0.090212472 -0.030070825 1.1850001
-0.088064238 -0.030045444 1.184
-0.08570163 -0.029943943 1.1800001
-0.083423898 -0.029867815 1.177
-0.081156656 -0.029791685 1.174
-0.079034686 -0.02976631 1.1730001
-0.076981835 -0.02976631 1.1730001
-0.07486511 -0.029740933 1.1720001
-0.072689757 -0.02969018 1.1700001
-0.070521399 -0.029639428 1.1680001
-0.068418667 -0.029614052 1.1670001
-0.066376321 -0.029614052 1.1670001
-0.064333975 -0.029614052 1.1670001
-0.062291626 -0.029614052 1.1670001
-0.06024928 -0.029614052 1.1670001
-0.058306683 -0.029664803 1.169
-0.056357086 -0.029715555 1.171
-0.054354116 -0.029740933 1.1720001
-0.05239227 -0.029791685 1.174
-0.050552059 -0.029918566 1.179
-0.048694346 -0.030045444 1.184
-0.046779756 -0.030146955 1.1880001
-0.044888787 -0.030273836 1.1930001
-0.042944442 -0.030375337 1.197
-0.041020226 -0.030502219 1.202
-0.039143264 -0.030679855 1.2090001
-0.10672715 -0.029107405 1.2320001
-0.10372224 -0.02887114 1.222
-0.10083549 -0.028658507 1.2130001
-0.098142974 -0.028493125 1.2060001
-0.095554605 -0.028351367 1.2
-0.092987224 -0.028209606 1.194
-0.090516984 -0.028091477 1.189
-0.088213004 -0.028020602 1.1860001
-0.085919522 -0.027949722 1.1830001
-0.083707415 -0.027902471 1.1810001
-0.08143317 -0.027831592 1.1780001
-0.079304196 -0.027807964 1.177
-0.077178709 -0.027784338 1.176
-0.075120613 -0.027784338 1.176
-0.072938263 -0.027737085 1.174
-0.07076291 -0.027689833 1.1720001
-0.068653181 -0.027666207 1.171
-0.066603832 -0.027666207 1.171
-0.064554483 -0.027666207 1.171
-0.062451757 -0.027642582 1.1700001
-0.06045578 -0.027666207 1.171
-0.058406439 -0.027666207 1.171
-0.056501471 -0.027737085 1.174
-0.054539625 -0.027784338 1.176
-0.052570783 -0.027831592 1.1780001
-0.050594937 -0.027878843 1.1800001
-0.048694346 -0.027973346 1.184
-0.046819128 -0.028091477 1.189
-0.044964042 -0.028233236 1.1950001
-0.043052074 -0.028351367 1.2
-0.041122608 -0.028469495 1.205
-0.03924039 -0.028634878 1.212
-0.10785332 -0.027235685 1.245
-0.10508031 -0.027082553 1.238
-0.10216554 -0.026885672 1.2290001
-0.09928228 -0.026688784 1.22
-0.096430518 -0.026491901 1.2110001
-0.093688145 -0.026316892 1.2030001
-0.091202147 -0.026207514 1.1980001
-0.088808022 -0.026120007 1.194
-0.086427912 -0.026032504 1.1900001
-0.084132679 -0.025966875 1.187
-0.08191707 -0.025923124 1.1850001
-0.07977584 -0.025901247 1.184
-0.077638119 -0.025879372 1.1830001
-0.075503886 -0.025857495 1.182
-0.073311031 -0.025813743 1.1800001
-0.07112518 -0.025769992 1.1780001
-0.069063574 -0.025769992 1.1780001
-0.067001984 -0.025769992 1.1780001
-0.064940378 -0.025769992 1.1780001
-0.062825404 -0.025748115 1.177
-0.060868807 -0.025791867 1.179
-0.058805458 -0.025791867 1.179
-0.05688649 -0.025857495 1.182
-0.054910641 -0.025901247 1.184
-0.052972425 -0.025966875 1.187
-0.050937958 -0.025988754 1.1880001
-0.048941109 -0.026032504 1.1900001
-0.04705539 -0.026141886 1.1950001
-0.045227427 -0.026295016 1.202
-0.043374967 -0.026448149 1.2090001
-0.041463871 -0.026579404 1.215
-0.10811321 -0.025117209 1.248
-0.10541983 -0.024996454 1.2420001
-0.10283058 -0.024895824 1.2370001
-0.10009607 -0.024754941 1.23
-0.097226813 -0.024573809 1.2210001
-0.094544813 -0.024432927 1.2140001
-0.091963433 -0.024312172 1.2080001
-0.089403048 -0.024191415 1.202
-0.086863682 -0.024070662 1.1960001
-0.084487066 -0.023990154 1.192
-0.082331844 -0.02397003 1.1910001
-0.080314867 -0.023990154 1.192
-0.078097515 -0.023949903 1.1900001
-0.075823277 -0.023889525 1.187
-0.073559545 -0.023829147 1.184
-0.07136669 -0.023788895 1.182
-0.069356717 -0.023809021 1.1830001
-0.067286365 -0.023809021 1.1830001
-0.06521602 -0.023809021 1.1830001
-0.063145667 -0.023809021 1.1830001
-0.061075319 -0.023809021 1.1830001
-0.05905484 -0.023829147 1.184
-0.057127129 -0.023889525 1.187
-0.055142529 -0.023929777 1.189
-0.053150937 -0.02397003 1.1910001
-0.051109459 -0.023990154 1.192
-0.049064487 -0.024010282 1.1930001
-0.047212899 -0.024131035 1.199
-0.045340311 -0.024251793 1.205
-0.043482594 -0.024392674 1.212
-0.041634504 -0.024553683 1.22
-0.10802659 -0.02291473 1.2470001
-0.1055047 -0.022841224 1.243
-0.10307996 -0.022786098 1.24
-0.10066573 -0.022730971 1.2370001
-0.09818235 -0.022657467 1.233
-0.095635109 -0.022565586 1.228
-0.092953101 -0.022436956 1.2210001
-0.090295605 -0.022308325 1.2140001
-0.087735228 -0.02219807 1.2080001
-0.085337617 -0.022124566 1.2040001
-0.083161376 -0.022106189 1.2030001
-0.081123412 -0.022124566 1.2040001
-0.078819424 -0.022069439 1.2010001
-0.07646206 -0.021995934 1.197
-0.074118696 -0.021922432 1.1930001
-0.071970463 -0.021904055 1.192
-0.069942996 -0.021922432 1.1930001
-0.067855142 -0.021922432 1.1930001
-0.065822415 -0.021940805 1.194
-0.063732818 -0.021940805 1.194
-0.061643217 -0.021940805 1.194
-0.059553616 -0.021940805 1.194
-0.057512149 -0.021959184 1.1950001
-0.05551355 -0.021995934 1.197
-0.05350795 -0.022032686 1.199
-0.051538233 -0.022087814 1.202
-0.049558014 -0.022142941 1.205
-0.047685422 -0.022253197 1.2110001
-0.045716576 -0.0223267 1.215
-0.043841362 -0.022455331 1.222
-0.10776669 -0.020682497 1.2440001
-0.10533495 -0.020632619 1.2410001
-0.1029137 -0.020582741 1.238
-0.10066573 -0.020566117 1.2370001
-0.098341607 -0.020532863 1.235
-0.095946625 -0.020482989 1.2320001
-0.093486004 -0.020416483 1.228
-0.090965003 -0.020333355 1.223
-0.088388883 -0.020233599 1.217
-0.086046398 -0.020183723 1.2140001
-0.08378353 -0.02015047 1.212
-0.081662431 -0.02015047 1.212
-0.079278819 -0.020083968 1.2080001
-0.076909207 -0.020017464 1.2040001
-0.074615717 -0.019967588 1.2010001
-0.072513871 -0.019967588 1.2010001
-0.070412017 -0.019967588 1.2010001
-0.068367042 -0.019984214 1.202
-0.066208318 -0.019967588 1.2010001
-0.064159833 -0.019984214 1.202
-0.062004618 -0.019967588 1.2010001
-0.059852883 -0.019950962 1.2
-0.057752781 -0.019950962 1.2
-0.055745434 -0.019984214 1.202
-0.053686462 -0.02000084 1.2030001
-0.051709745 -0.020050716 1.2060001
