# .PCD v0.7 - Point Cloud Data file format
VERSION 0.7
FIELDS x y z
SIZE 4 4 4
TYPE F F F
COUNT 1 1 1
WIDTH 1420
HEIGHT 1
VIEWPOINT 0 0 0 1 0 0 0
POINTS 1420
DATA ascii
-0.08809837 -0.11144974 1.2130001
-0.085692003 -0.11108223 1.2090001
-0.083507024 -0.11099035 1.2080001
-0.081460305 -0.11108223 1.2090001
-0.079344451 -0.11108223 1.2090001
-0.076845333 -0.11053095 1.2030001
-0.074615717 -0.1103472 1.2010001
-0.072393112 -0.11016342 1.199
-0.070236139 -0.11007155 1.1980001
-0.068082653 -0.10997967 1.197
-0.066042937 -0.11007155 1.1980001
-0.064053088 -0.11025532 1.2
-0.061952986 -0.11025532 1.2
-0.059852883 -0.11025532 1.2
-0.057800915 -0.1103472 1.2010001
-0.055745434 -0.11043906 1.202
-0.053641833 -0.11043906 1.202
-0.051538233 -0.11043906 1.202
-0.049434628 -0.11043906 1.202
-0.047370408 -0.11053095 1.2030001
-0.045227427 -0.11043906 1.202
-0.043159705 -0.11053095 1.2030001
-0.041054353 -0.11053095 1.2030001
-0.038949002 -0.11053095 1.2030001
-0.036813021 -0.11043906 1.202
-0.034680545 -0.1103472 1.2010001
-0.032632947 -0.11053095 1.2030001
-0.030679855 -0.11108223 1.2090001
-0.028634878 -0.11135786 1.212
-0.026579404 -0.1116335 1.215
-0.024473179 -0.11172538 1.2160001
-0.022400206 -0.11200102 1.2190001
-0.020283476 -0.1120929 1.22
-0.018207878 -0.11246042 1.2240001
-0.016144527 -0.1130117 1.23
-0.11167026 -0.11167026 1.2390001
-0.10923676 -0.11139987 1.2360001
-0.10733355 -0.11167026 1.2390001
-0.10465591 -0.11112947 1.233
-0.10166677 -0.11022818 1.223
-0.098875389 -0.10950715 1.215
-0.096350886 -0.1090565 1.21
-0.094389044 -0.10923675 1.212
-0.092420205 -0.10941702 1.2140001
-0.090518728 -0.1096874 1.217
-0.087880477 -0.1090565 1.21
-0.085762881 -0.1090565 1.21
-0.083576158 -0.10896637 1.2090001
-0.081729807 -0.10932689 1.2130001
-0.07967259 -0.10941702 1.2140001
-0.076973081 -0.10860585 1.205
-0.074553594 -0.10815521 1.2
-0.072393112 -0.10806508 1.199
-0.070353389 -0.10815521 1.2
-0.068367042 -0.10833547 1.202
-0.066263437 -0.10833547 1.202
-0.064159833 -0.10833547 1.202
-0.062004618 -0.10824534 1.2010001
-0.060002517 -0.10842559 1.2030001
-0.057945296 -0.10851573 1.2040001
-0.055838194 -0.10851573 1.2040001
-0.053686462 -0.10842559 1.2030001
-0.051581111 -0.10842559 1.2030001
-0.049475759 -0.10842559 1.2030001
-0.047409784 -0.10851573 1.2040001
-0.045302682 -0.10851573 1.2040001
-0.043159705 -0.10842559 1.2030001
-0.041054353 -0.10842559 1.2030001
-0.038949002 -0.10842559 1.2030001
-0.036813021 -0.10833547 1.202
-0.03470942 -0.10833547 1.202
-0.032687198 -0.10860585 1.205
-0.030730607 -0.10914663 1.2110001
-0.028634878 -0.10923675 1.212
-0.026557529 -0.10941702 1.2140001
-0.024453053 -0.10950715 1.215
-0.022400206 -0.10986767 1.2190001
-0.020316727 -0.11013805 1.222
-0.018237628 -0.11049858 1.2260001
-0.11319546 -0.10888325 1.2320001
-0.11112947 -0.10897163 1.233
-0.10852973 -0.10852973 1.228
-0.10638063 -0.10852973 1.228
-0.10397688 -0.10826459 1.225
-0.10150052 -0.10791107 1.2210001
-0.098956764 -0.10746918 1.2160001
-0.096430518 -0.10702728 1.2110001
-0.094466932 -0.10720404 1.2130001
-0.092420205 -0.10729243 1.2140001
-0.090444356 -0.10746918 1.2160001
-0.087662593 -0.10667376 1.207
-0.085621126 -0.10676214 1.2080001
-0.083437897 -0.10667376 1.207
-0.081729807 -0.10720404 1.2130001
-0.079475701 -0.10702728 1.2110001
-0.076845333 -0.10632025 1.2030001
-0.074491456 -0.10596672 1.199
-0.072272353 -0.10578997 1.197
-0.07029476 -0.10596672 1.199
-0.068253286 -0.10605511 1.2
-0.066208318 -0.10614349 1.2010001
-0.064106472 -0.10614349 1.2010001
-0.062004618 -0.10614349 1.2010001
-0.059852883 -0.10605511 1.2
-0.057800915 -0.10614349 1.2010001
-0.055652682 -0.10605511 1.2
-0.05350795 -0.10596672 1.199
-0.051409598 -0.10596672 1.199
-0.04931125 -0.10596672 1.199
-0.047291655 -0.10614349 1.2010001
-0.045152176 -0.10605511 1.2
-0.043052074 -0.10605511 1.2
-0.040917847 -0.10596672 1.199
-0.038819492 -0.10596672 1.199
-0.036751769 -0.10605511 1.2
-0.034680545 -0.10614349 1.2010001
-0.032660075 -0.10640863 1.2040001
-0.0306291 -0.10667376 1.207
-0.028540375 -0.10676214 1.2080001
-0.026470024 -0.1069389 1.21
-0.02437255 -0.10702728 1.2110001
-0.0223267 -0.10738079 1.215
-0.020250225 -0.10764594 1.2180001
-0.018178126 -0.10799944 1.222
-0.016118275 -0.10852973 1.228
-0.11076896 -0.10646725 1.2290001
-0.10782269 -0.10568759 1.22
-0.10577422 -0.10577422 1.2210001
-0.10363737 -0.10577422 1.2210001
-0.10141739 -0.10568759 1.22
-0.099038139 -0.1054277 1.217
-0.096430518 -0.10490793 1.2110001
-0.09431117 -0.10490793 1.2110001
-0.092420205 -0.10516782 1.2140001
-0.090221219 -0.10508119 1.2130001
-0.087735228 -0.10464804 1.2080001
-0.085692003 -0.10473467 1.2090001
-0.083576158 -0.10473467 1.2090001
-0.081864566 -0.10525444 1.215
-0.079410069 -0.10482129 1.21
-0.076909207 -0.10430153 1.2040001
-0.07473997 -0.1042149 1.2030001
-0.072513871 -0.10404164 1.2010001
-0.070529275 -0.1042149 1.2030001
-0.068537675 -0.10438816 1.205
-0.066483952 -0.10447479 1.2060001
-0.064319976 -0.10438816 1.205
-0.062107868 -0.1042149 1.2030001
-0.059952635 -0.10412826 1.202
-0.057800915 -0.10404164 1.2010001
-0.055606302 -0.10386837 1.199
-0.053463325 -0.10378175 1.1980001
-0.051366724 -0.10378175 1.1980001
-0.049228996 -0.10369512 1.197
-0.047173522 -0.10378175 1.1980001
-0.045114547 -0.10386837 1.199
-0.043016195 -0.10386837 1.199
-0.04088372 -0.10378175 1.1980001
-0.038754743 -0.10369512 1.197
-0.036690518 -0.10378175 1.1980001
-0.034651671 -0.10395501 1.2
-0.032660075 -0.10430153 1.2040001
-0.0306291 -0.10456141 1.207
-0.028564001 -0.10473467 1.2090001
-0.026491901 -0.10490793 1.2110001
-0.024412801 -0.10508119 1.2130001
-0.0223267 -0.10525444 1.215
-0.020266851 -0.10560096 1.2190001
-0.018193001 -0.10594748 1.223
-0.016118275 -0.10638063 1.228
-0.11094922 -0.10448616 1.2310001
-0.10773432 -0.10346761 1.2190001
-0.10525444 -0.10312809 1.215
-0.10312809 -0.10312809 1.215
-0.10133426 -0.10346761 1.2190001
-0.099200912 -0.10346761 1.2190001
-0.096589774 -0.10295833 1.2130001
-0.094155416 -0.10261882 1.2090001
-0.092039563 -0.10261882 1.2090001
-0.08984933 -0.10253394 1.2080001
-0.087662593 -0.10244906 1.207
-0.085692003 -0.10261882 1.2090001
-0.08378353 -0.10287345 1.212
-0.081999324 -0.10329785 1.217
-0.079213187 -0.10244906 1.207
-0.076845333 -0.10210954 1.2030001
-0.074677847 -0.10202466 1.202
-0.072574243 -0.10202466 1.202
-0.070412017 -0.10193979 1.2010001
-0.068367042 -0.10202466 1.202
-0.066263437 -0.10202466 1.202
-0.064106472 -0.10193979 1.2010001
-0.061901353 -0.10177002 1.199
-0.059703253 -0.10160027 1.197
-0.057560276 -0.10151539 1.1960001
-0.055374417 -0.10134563 1.194
-0.053240187 -0.10126076 1.1930001
-0.051152341 -0.10126076 1.1930001
-0.049146742 -0.10143051 1.1950001
-0.04709477 -0.10151539 1.1960001
-0.045001671 -0.10151539 1.1960001
-0.04287269 -0.10143051 1.1950001
-0.040713087 -0.10126076 1.1930001
-0.038592856 -0.10117587 1.192
-0.036537383 -0.10126076 1.1930001
-0.034565039 -0.10160027 1.197
-0.032551568 -0.10185491 1.2
-0.030502219 -0.10202466 1.202
-0.028445872 -0.10219443 1.2040001
-0.026382521 -0.10236418 1.2060001
-0.024312172 -0.10253394 1.2080001
-0.022253197 -0.10278858 1.2110001
-0.020200348 -0.10312809 1.215
-0.018148374 -0.10355249 1.22
-0.016078899 -0.10397688 1.225
-0.11167026 -0.10299684 1.2390001
-0.10835297 -0.10191616 1.2260001
-0.10577422 -0.10150052 1.2210001
-0.10346761 -0.10133426 1.2190001
-0.10133426 -0.10133426 1.2190001
-0.099038139 -0.10116799 1.217
-0.096669406 -0.10091861 1.2140001
-0.094155416 -0.10050297 1.2090001
-0.092191823 -0.10066923 1.2110001
-0.089700572 -0.10025358 1.2060001
-0.087807857 -0.10050297 1.2090001
-0.085692003 -0.10050297 1.2090001
-0.083990917 -0.10100174 1.215
-0.08179719 -0.10091861 1.2140001
-0.079213187 -0.10033671 1.207
-0.076973081 -0.10017045 1.205
-0.074864231 -0.10017045 1.205
-0.072755381 -0.10017045 1.205
-0.070529275 -0.10000419 1.2030001
-0.068480805 -0.10008733 1.2040001
-0.066373698 -0.10008733 1.2040001
-0.064213216 -0.10000419 1.2030001
-0.061901353 -0.099671669 1.199
-0.059703253 -0.099505417 1.197
-0.057512149 -0.099339157 1.1950001
-0.055374417 -0.099256024 1.194
-0.053240187 -0.099172905 1.1930001
-0.051195215 -0.099256024 1.194
-0.049187873 -0.099422291 1.1960001
-0.047134146 -0.099505417 1.197
-0.045001671 -0.099422291 1.1960001
-0.042908568 -0.099422291 1.1960001
-0.040747214 -0.099256024 1.194
-0.038625237 -0.099172905 1.1930001
-0.036568012 -0.099256024 1.194
-0.034593917 -0.099588551 1.1980001
-0.032551568 -0.09975481 1.2
-0.030527595 -0.10000419 1.2030001
-0.028469495 -0.10017045 1.205
-0.026404398 -0.10033671 1.207
-0.024332298 -0.10050297 1.2090001
-0.022253197 -0.10066923 1.2110001
-0.020216975 -0.10108487 1.2160001
-0.018148374 -0.10141739 1.22
-0.016065774 -0.1017499 1.2240001
-0.013980549 -0.10216554 1.2290001
-0.11591333 -0.1007471 1.238
-0.11319546 -0.10025883 1.2320001
-0.11103936 -0.10025883 1.2320001
-0.10817622 -0.099607803 1.2240001
-0.10568759 -0.09928228 1.22
-0.10329785 -0.099038139 1.217
-0.10150052 -0.099363662 1.2210001
-0.099119522 -0.099119522 1.2180001
-0.096828662 -0.098956764 1.2160001
-0.094233289 -0.098468497 1.21
-0.092115685 -0.098468497 1.21
-0.089477435 -0.097898841 1.2030001
-0.087589972 -0.098142974 1.2060001
-0.085621126 -0.098305739 1.2080001
-0.08412917 -0.099038139 1.217
-0.081460305 -0.098387122 1.2090001
-0.078950681 -0.097898841 1.2030001
-0.076781444 -0.097817458 1.202
-0.07473997 -0.097898841 1.2030001
-0.072695009 -0.097980224 1.2040001
-0.070353389 -0.097654708 1.2
-0.068196408 -0.097573325 1.199
-0.066042937 -0.09749195 1.1980001
-0.063946329 -0.09749195 1.1980001
-0.061643217 -0.097166426 1.194
-0.05945386 -0.097003669 1.192
-0.057319637 -0.096922293 1.1910001
-0.055142529 -0.096759535 1.189
-0.053061679 -0.096759535 1.189
-0.051066589 -0.096922293 1.1910001
-0.049064487 -0.097085051 1.1930001
-0.04705539 -0.097247809 1.1950001
-0.044926412 -0.097166426 1.194
-0.042800937 -0.097085051 1.1930001
-0.040678959 -0.097003669 1.192
-0.038592856 -0.097003669 1.192
-0.036568012 -0.097166426 1.194
-0.034536164 -0.097329192 1.1960001
-0.032470189 -0.09741056 1.197
-0.030400714 -0.09749195 1.1980001
-0.028327739 -0.097573325 1.199
-0.026338769 -0.097980224 1.2040001
-0.024251793 -0.098061599 1.205
-0.022216447 -0.098387122 1.2090001
-0.02015047 -0.098631248 1.212
-0.018073995 -0.098875389 1.215
-0.016000146 -0.099200912 1.2190001
-0.013900919 -0.099445038 1.222
-0.11469615 -0.097545318 1.225
-0.11273605 -0.097704589 1.2270001
-0.11004793 -0.097226813 1.2210001
-0.10799944 -0.097306438 1.222
-0.10612074 -0.097545318 1.225
-0.10414664 -0.097704589 1.2270001
-0.10191616 -0.097624958 1.2260001
-0.099363662 -0.097226813 1.2210001
-0.096828662 -0.096828662 1.2160001
-0.094544813 -0.096669406 1.2140001
-0.092344075 -0.096589774 1.2130001
-0.089626193 -0.095952749 1.205
-0.087735228 -0.096191637 1.2080001
-0.085692003 -0.096271269 1.2090001
-0.084267437 -0.097067557 1.2190001
-0.08152768 -0.096350886 1.21
-0.079147562 -0.096032381 1.2060001
-0.076845333 -0.095793493 1.2030001
-0.07473997 -0.095793493 1.2030001
-0.072634622 -0.095793493 1.2030001
-0.070353389 -0.095554605 1.2
-0.068253286 -0.095554605 1.2
-0.066098057 -0.095474973 1.199
-0.063999705 -0.095474973 1.199
-0.061694849 -0.095156454 1.1950001
-0.059553616 -0.095076822 1.194
-0.057367764 -0.094917566 1.192
-0.055235289 -0.094837949 1.1910001
-0.053106308 -0.094758317 1.1900001
-0.051109459 -0.094917566 1.192
-0.049105614 -0.095076822 1.194
-0.04705539 -0.095156454 1.1950001
-0.044964042 -0.095156454 1.1950001
-0.042800937 -0.094997197 1.1930001
-0.040747214 -0.095076822 1.194
-0.038625237 -0.094997197 1.1930001
-0.036598638 -0.095156454 1.1950001
-0.034565039 -0.095315717 1.197
-0.03252444 -0.095474973 1.199
-0.030476844 -0.095634237 1.2010001
-0.028398618 -0.095713861 1.202
-0.026360646 -0.095952749 1.205
-0.024292044 -0.096111998 1.207
-0.02223482 -0.096350886 1.21
-0.020167096 -0.096589774 1.2130001
-0.018073995 -0.09674903 1.215
-0.01598702 -0.096987925 1.2180001
-0.013855417 -0.096987925 1.2180001
-0.011810445 -0.097704589 1.2270001
-0.11553882 -0.096102379 1.2340001
-0.11218478 -0.095089957 1.2210001
-0.10995779 -0.095012076 1.22
-0.10826459 -0.095401466 1.225
-0.10681377 -0.096024506 1.233
-0.10482567 -0.096180253 1.235
-0.10241494 -0.095946625 1.2320001
-0.099445038 -0.095167831 1.222
-0.096828662 -0.09470056 1.2160001
-0.094544813 -0.094544813 1.2140001
-0.092039563 -0.094155416 1.2090001
-0.089403048 -0.093610257 1.202
-0.087372087 -0.093688145 1.2030001
-0.085550241 -0.093999654 1.207
-0.084060051 -0.09470056 1.2160001
-0.081392922 -0.094077535 1.2080001
-0.079016313 -0.093766026 1.2040001
-0.076653697 -0.093454503 1.2
-0.074491456 -0.093376614 1.199
-0.072332732 -0.093298748 1.1980001
-0.070118874 -0.093142986 1.1960001
-0.06791202 -0.092987224 1.194
-0.065712161 -0.09283147 1.192
-0.063679442 -0.092909351 1.1930001
-0.061436713 -0.092675716 1.1900001
-0.059354108 -0.092675716 1.1900001
-0.057175256 -0.092519961 1.1880001
-0.055096157 -0.092519961 1.1880001
-0.052972425 -0.09244208 1.187
-0.050895076 -0.09244208 1.187
-0.048899978 -0.092597827 1.189
-0.046858508 -0.092675716 1.1900001
-0.044813536 -0.092753597 1.1910001
-0.042693306 -0.092675716 1.1900001
-0.040644836 -0.092753597 1.1910001
-0.038560484 -0.092753597 1.1910001
-0.036476135 -0.092753597 1.1910001
-0.034449536 -0.092909351 1.1930001
-0.032443065 -0.093142986 1.1960001
-0.030400714 -0.093298748 1.1980001
-0.028351367 -0.093454503 1.2
-0.026295016 -0.093610257 1.202
-0.024231669 -0.093766026 1.2040001
-0.022179693 -0.093999654 1.207
-0.02011722 -0.094233289 1.21
-0.018059121 -0.094544813 1.2140001
-0.01596077 -0.09470056 1.2160001
-0.013855417 -0.094856322 1.2180001
-0.011781568 -0.0953236 1.2240001
-0.11572608 -0.094095036 1.2360001
-0.11291982 -0.093562134 1.2290001
-0.11112947 -0.093866646 1.233
-0.10959027 -0.094399542 1.24
-0.10793995 -0.094856322 1.2460001
-0.10541983 -0.094551809 1.2420001
-0.1025812 -0.093942776 1.2340001
-0.098956764 -0.092572458 1.2160001
-0.096510142 -0.092267938 1.212
-0.094389044 -0.092267938 1.212
-0.091963433 -0.091963433 1.2080001
-0.089626193 -0.091735043 1.205
-0.087589972 -0.091811173 1.2060001
-0.085692003 -0.092039563 1.2090001
-0.08378353 -0.092267938 1.212
-0.08152768 -0.092115685 1.21
-0.079213187 -0.091887303 1.207
-0.076909207 -0.09165892 1.2040001
-0.074615717 -0.09143053 1.2010001
-0.072393112 -0.09127827 1.199
-0.070118874 -0.091049887 1.1960001
-0.067968898 -0.090973757 1.1950001
-0.065822415 -0.09089762 1.194
-0.063732818 -0.09089762 1.194
-0.061488338 -0.090669252 1.1910001
-0.059354108 -0.090593114 1.1900001
-0.057175256 -0.090440862 1.1880001
-0.055142529 -0.090516984 1.189
-0.053017057 -0.090440862 1.1880001
-0.050937958 -0.090440862 1.1880001
-0.048858855 -0.090440862 1.1880001
-0.046819128 -0.090516984 1.189
-0.044813536 -0.090669252 1.1910001
-0.042765059 -0.090745367 1.192
-0.040713087 -0.090821505 1.1930001
-0.038625237 -0.090821505 1.1930001
-0.036568012 -0.09089762 1.194
-0.034507286 -0.090973757 1.1950001
-0.032497313 -0.091202147 1.1980001
-0.030476844 -0.09143053 1.2010001
-0.028445872 -0.09165892 1.2040001
-0.026360646 -0.091735043 1.205
-0.02427192 -0.091811173 1.2060001
-0.022179693 -0.091887303 1.207
-0.02011722 -0.092115685 1.21
-0.018088872 -0.092572458 1.2160001
-0.015973894 -0.092648581 1.217
-0.013866793 -0.092800848 1.2190001
-0.011791193 -0.093257613 1.225
-0.11535156 -0.091634415 1.2320001
-0.11291982 -0.091411285 1.2290001
-0.11194064 -0.092378199 1.2420001
-0.11012056 -0.092675716 1.2460001
-0.10698702 -0.091857545 1.235
-0.10465591 -0.091708787 1.233
-0.10183302 -0.091113761 1.225
-0.098956764 -0.090444356 1.2160001
-0.096191637 -0.08984933 1.2080001
-0.094155416 -0.08992371 1.2090001
-0.09165892 -0.089551821 1.2040001
-0.089551821 -0.089551821 1.2040001
-0.087444715 -0.089551821 1.2040001
-0.085550241 -0.089774944 1.207
-0.083299637 -0.089626193 1.205
-0.08125817 -0.089700572 1.2060001
-0.07908193 -0.089626193 1.205
-0.076973081 -0.089626193 1.205
-0.074677847 -0.089403048 1.202
-0.072393112 -0.089179918 1.199
-0.070060246 -0.088882409 1.1950001
-0.067798264 -0.088659264 1.192
-0.065601908 -0.088510513 1.1900001
-0.063519314 -0.088510513 1.1900001
-0.06128183 -0.088287376 1.187
-0.0591546 -0.088213004 1.1860001
-0.057078999 -0.088213004 1.1860001
-0.055096157 -0.088361755 1.1880001
-0.053017057 -0.088361755 1.1880001
-0.050895076 -0.088287376 1.187
-0.048735473 -0.088138625 1.1850001
-0.046779756 -0.088361755 1.1880001
-0.044813536 -0.088584892 1.1910001
-0.042765059 -0.088659264 1.192
-0.040713087 -0.088733651 1.1930001
-0.038657613 -0.088808022 1.194
-0.036568012 -0.088808022 1.194
-0.034507286 -0.088882409 1.1950001
-0.032443065 -0.088956788 1.1960001
-0.030426089 -0.089179918 1.199
-0.028398618 -0.089403048 1.202
-0.026338769 -0.089551821 1.2040001
-0.024251793 -0.089626193 1.205
-0.022161318 -0.089700572 1.2060001
-0.020083968 -0.08984933 1.2080001
-0.018044244 -0.090221219 1.2130001
-0.015947644 -0.090369977 1.215
-0.013855417 -0.090593114 1.2180001
-0.011762316 -0.090890624 1.222
-0.11903372 -0.090640359 1.248
-0.11638148 -0.090277225 1.243
-0.11457365 -0.090567738 1.2470001
-0.11275181 -0.090858251 1.251
-0.10994379 -0.090349853 1.2440001
-0.10759343 -0.090204597 1.2420001
-0.10457104 -0.089478314 1.2320001
-0.1017499 -0.088897288 1.2240001
-0.099038139 -0.088388883 1.217
-0.096032381 -0.087589972 1.2060001
-0.093999654 -0.087662593 1.207
-0.09150666 -0.087299451 1.202
-0.089700572 -0.087589972 1.2060001
-0.087589972 -0.087589972 1.2060001
-0.085833758 -0.087953113 1.2110001
-0.083368771 -0.087589972 1.2060001
-0.081460305 -0.087807857 1.2090001
-0.079344451 -0.087807857 1.2090001
-0.077228598 -0.087807857 1.2090001
-0.074864231 -0.087517343 1.205
-0.072513871 -0.08722683 1.2010001
-0.070236139 -0.087008946 1.1980001
-0.068082653 -0.08693631 1.197
-0.065822415 -0.086718418 1.194
-0.063679442 -0.086645797 1.1930001
-0.061488338 -0.086500548 1.1910001
-0.059403993 -0.086500548 1.1910001
-0.05727151 -0.086427912 1.1900001
-0.055235289 -0.086500548 1.1910001
-0.053017057 -0.086282656 1.1880001
-0.050937958 -0.086282656 1.1880001
-0.048858855 -0.086282656 1.1880001
-0.046976641 -0.086645797 1.1930001
-0.044964042 -0.086791053 1.1950001
-0.042836811 -0.086718418 1.194
-0.040781341 -0.086791053 1.1950001
-0.038722366 -0.086863682 1.1960001
-0.036659889 -0.08693631 1.197
-0.034593917 -0.087008946 1.1980001
-0.03252444 -0.087081566 1.199
-0.030502219 -0.087299451 1.202
-0.028469495 -0.087517343 1.205
-0.026426272 -0.087735228 1.2080001
-0.024312172 -0.087735228 1.2080001
-0.022253197 -0.087953113 1.2110001
-0.02015047 -0.088025734 1.212
-0.018073995 -0.088243626 1.215
-0.01596077 -0.088316262 1.2160001
-0.013866793 -0.088534147 1.2190001
-0.011771942 -0.088824652 1.223
-0.12102357 -0.088314503 1.2460001
-0.11884298 -0.088314503 1.2460001
-0.11684962 -0.088456258 1.248
-0.11429801 -0.088172749 1.2440001
-0.1121209 -0.088172749 1.2440001
-0.11003217 -0.088243626 1.245
-0.10811321 -0.088456258 1.248
-0.10508031 -0.08774747 1.238
-0.10158364 -0.086613417 1.222
-0.098875389 -0.086117268 1.215
-0.096191637 -0.085621126 1.2080001
-0.094233289 -0.085762881 1.21
-0.0913544 -0.0850541 1.2
-0.089551821 -0.085337617 1.2040001
-0.087444715 -0.085337617 1.2040001
-0.085692003 -0.085692003 1.2090001
-0.083299637 -0.085408486 1.205
-0.08125817 -0.085479371 1.2060001
-0.079147562 -0.085479371 1.2060001
-0.076973081 -0.085408486 1.205
-0.074553594 -0.0850541 1.2
-0.072332732 -0.084912345 1.1980001
-0.070118874 -0.084770583 1.1960001
-0.068082653 -0.08484146 1.197
-0.065767296 -0.08455795 1.1930001
-0.063626066 -0.084487066 1.192
-0.061436713 -0.084345318 1.1900001
-0.05945386 -0.084487066 1.192
-0.05727151 -0.084345318 1.1900001
-0.055188909 -0.084345318 1.1900001
-0.052972425 -0.084132679 1.187
-0.050895076 -0.084132679 1.187
-0.048858855 -0.084203556 1.1880001
-0.046976641 -0.08455795 1.1930001
-0.044926412 -0.08462882 1.194
-0.042836811 -0.08462882 1.194
-0.040781341 -0.084699705 1.1950001
-0.038689986 -0.084699705 1.1950001
-0.036629267 -0.084770583 1.1960001
-0.034593917 -0.084912345 1.1980001
-0.03252444 -0.084983215 1.199
-0.030502219 -0.085195847 1.202
-0.028422246 -0.085266739 1.2030001
-0.026404398 -0.085550241 1.207
-0.024292044 -0.085550241 1.207
-0.022216447 -0.085692003 1.2090001
-0.020133846 -0.085833758 1.2110001
-0.018044244 -0.08597552 1.2130001
-0.015934518 -0.086046398 1.2140001
-0.013844041 -0.08625903 1.217
-0.011762316 -0.086613417 1.222
-0.11989216 -0.086894311 1.2570001
-0.11731777 -0.08661779 1.253
-0.11466552 -0.086272158 1.248
-0.11221103 -0.086064771 1.245
-0.10985541 -0.085926518 1.243
-0.10759343 -0.085857391 1.2420001
-0.10533495 -0.085788257 1.2410001
-0.10249806 -0.085235231 1.233
-0.099607803 -0.084613077 1.2240001
-0.097226813 -0.08440569 1.2210001
-0.094622679 -0.083990917 1.215
-0.091582783 -0.083161376 1.2030001
-0.089626193 -0.083299637 1.205
-0.087517343 -0.083299637 1.205
-0.085762881 -0.083645277 1.21
-0.083437897 -0.083437897 1.207
-0.081460305 -0.083576158 1.2090001
-0.079213187 -0.083437897 1.207
-0.076845333 -0.083161376 1.2030001
-0.074553594 -0.082953997 1.2
-0.072393112 -0.082884863 1.199
-0.070236139 -0.082815744 1.1980001
-0.068196408 -0.082884863 1.199
-0.065932676 -0.082677484 1.1960001
-0.063839577 -0.082677484 1.1960001
-0.061643217 -0.082539223 1.194
-0.059603497 -0.082608357 1.1950001
-0.057367764 -0.082400963 1.192
-0.055142529 -0.082193583 1.189
-0.0529278 -0.081986204 1.1860001
-0.050895076 -0.082055323 1.187
-0.048899978 -0.082193583 1.189
-0.046937261 -0.082400963 1.192
-0.044926412 -0.082539223 1.194
-0.042908568 -0.082677484 1.1960001
-0.040849593 -0.08274661 1.197
-0.038754743 -0.08274661 1.197
-0.036690518 -0.082815744 1.1980001
-0.034622792 -0.082884863 1.199
-0.032551568 -0.082953997 1.2
-0.030502219 -0.08309225 1.202
-0.028469495 -0.083299637 1.205
-0.026426272 -0.083507024 1.2080001
-0.024312172 -0.083507024 1.2080001
-0.022253197 -0.083714411 1.2110001
-0.02015047 -0.08378353 1.212
-0.018073995 -0.083990917 1.215
-0.015973894 -0.08412917 1.217
-0.013878169 -0.084336564 1.22
-0.011791193 -0.084682204 1.225
-0.11998753 -0.084761836 1.258
-0.11713052 -0.084290184 1.251
-0.11457365 -0.084020674 1.2470001
-0.11230116 -0.083953291 1.2460001
-0.11012056 -0.083953291 1.2460001
-0.10811321 -0.08408805 1.248
-0.10626862 -0.084357567 1.2520001
-0.10349561 -0.083885908 1.245
-0.10042159 -0.083144754 1.2340001
-0.09818235 -0.083077371 1.233
-0.094778441 -0.081999324 1.217
-0.091735043 -0.081190787 1.205
-0.089551821 -0.081123412 1.2040001
-0.087517343 -0.081190787 1.205
-0.085550241 -0.081325538 1.207
-0.083299637 -0.081190787 1.205
-0.081056029 -0.081056029 1.2030001
-0.078819424 -0.080921277 1.2010001
-0.07646206 -0.080651753 1.197
-0.07430508 -0.080584385 1.1960001
-0.072211981 -0.080584385 1.1960001
-0.070118874 -0.080584385 1.1960001
-0.06791202 -0.080449626 1.194
-0.065767296 -0.08038225 1.1930001
-0.063626066 -0.080314867 1.192
-0.061539963 -0.080314867 1.192
-0.059354108 -0.080180116 1.1900001
-0.057223383 -0.080112733 1.189
-0.055049777 -0.079977974 1.187
-0.052972425 -0.079977974 1.187
-0.050895076 -0.079977974 1.187
-0.048817724 -0.079977974 1.187
-0.046819128 -0.080112733 1.189
-0.044888787 -0.08038225 1.1930001
-0.042836811 -0.080449626 1.194
-0.040781341 -0.080517009 1.1950001
-0.038754743 -0.080651753 1.197
-0.036721144 -0.080786511 1.199
-0.034651671 -0.080853894 1.2
-0.032497313 -0.080719136 1.1980001
-0.030451467 -0.080853894 1.2
-0.028445872 -0.081123412 1.2040001
-0.026404398 -0.081325538 1.207
-0.024292044 -0.081325538 1.207
-0.02219807 -0.081392922 1.2080001
-0.02011722 -0.08152768 1.21
-0.018029368 -0.081662431 1.212
-0.01596077 -0.081931949 1.2160001
-0.013878169 -0.082201459 1.22
-0.011771942 -0.082403593 1.223
-0.1201783 -0.082691483 1.2600001
-0.11750504 -0.082363345 1.2550001
-0.11503305 -0.082166463 1.2520001
-0.11266167 -0.082035199 1.25
-0.11047406 -0.082035199 1.25
-0.10811321 -0.081903942 1.248
-0.10635349 -0.08223208 1.253
-0.10382812 -0.081969574 1.2490001
-0.10115399 -0.081575803 1.243
-0.09850087 -0.08118204 1.2370001
-0.095012076 -0.080066353 1.22
-0.092039563 -0.079344451 1.2090001
-0.08984933 -0.079278819 1.2080001
-0.087807857 -0.079344451 1.2090001
-0.085692003 -0.079344451 1.2090001
-0.083368771 -0.079147562 1.2060001
-0.081123412 -0.079016313 1.2040001
-0.078819424 -0.078819424 1.2010001
-0.076525934 -0.078622542 1.1980001
-0.07430508 -0.078491278 1.1960001
-0.072211981 -0.078491278 1.1960001
-0.070060246 -0.078425653 1.1950001
-0.067855142 -0.078294396 1.1930001
-0.065712161 -0.078228764 1.192
-0.06357269 -0.07816314 1.1910001
-0.061539963 -0.078228764 1.192
-0.059403993 -0.07816314 1.1910001
-0.057319637 -0.07816314 1.1910001
-0.055142529 -0.078031883 1.189
-0.053017057 -0.077966258 1.1880001
-0.050937958 -0.077966258 1.1880001
-0.048899978 -0.078031883 1.189
-0.046897888 -0.07816314 1.1910001
-0.044926412 -0.078360021 1.194
-0.042836811 -0.078360021 1.194
-0.040781341 -0.078425653 1.1950001
-0.038787119 -0.078622542 1.1980001
-0.036782399 -0.078819424 1.2010001
-0.034680545 -0.078819424 1.2010001
-0.03252444 -0.078688167 1.199
-0.030502219 -0.078885049 1.202
-0.028516747 -0.079213187 1.207
-0.026470024 -0.079410069 1.21
-0.024352424 -0.079410069 1.21
-0.022216447 -0.079344451 1.2090001
-0.02015047 -0.079541326 1.212
-0.018073995 -0.079738215 1.215
-0.016039522 -0.08019761 1.222
-0.013957798 -0.080525756 1.2270001
-0.01182007 -0.080591381 1.228
-0.11989216 -0.080294751 1.2570001
-0.1174114 -0.080103114 1.2540001
-0.11503305 -0.079975352 1.2520001
-0.11275181 -0.079911478 1.251
-0.11056245 -0.079911478 1.251
-0.1083731 -0.079911478 1.251
-0.10618374 -0.079911478 1.251
-0.10357874 -0.079592079 1.2460001
-0.10115399 -0.079400443 1.243
-0.098341607 -0.078889422 1.235
-0.094856322 -0.077803493 1.2180001
-0.091963433 -0.077164717 1.2080001
-0.089774944 -0.077100836 1.207
-0.087735228 -0.077164717 1.2080001
-0.085621126 -0.077164717 1.2080001
-0.083230518 -0.076909207 1.2040001
-0.080921277 -0.07671757 1.2010001
-0.078622542 -0.076525934 1.1980001
-0.076270424 -0.076270424 1.194
-0.073994443 -0.076078795 1.1910001
-0.071849711 -0.076014914 1.1900001
-0.06976711 -0.076014914 1.1900001
-0.067627631 -0.075951025 1.189
-0.065491654 -0.075887159 1.1880001
-0.063412555 -0.075887159 1.1880001
-0.06138508 -0.075951025 1.189
-0.059254356 -0.075887159 1.1880001
-0.057223383 -0.075951025 1.189
-0.055096157 -0.075887159 1.1880001
-0.053017057 -0.075887159 1.1880001
-0.050895076 -0.075823277 1.187
-0.048899978 -0.075951025 1.189
-0.046819128 -0.075951025 1.189
-0.044813536 -0.076078795 1.1910001
-0.042693306 -0.076014914 1.1900001
-0.040678959 -0.076142661 1.192
-0.038689986 -0.076334298 1.1950001
-0.036690518 -0.076525934 1.1980001
-0.034593917 -0.076525934 1.1980001
-0.032443065 -0.076398179 1.1960001
-0.030426089 -0.076589808 1.199
-0.028469495 -0.076973081 1.205
-0.026426272 -0.077164717 1.2080001
-0.024312172 -0.077164717 1.2080001
-0.022179693 -0.077100836 1.207
-0.020100595 -0.077228598 1.2090001
-0.018029368 -0.077420227 1.212
-0.01598702 -0.077803493 1.2180001
-0.013923671 -0.078186765 1.2240001
-0.011800819 -0.078314528 1.2260001
-0.12257766 -0.078405529 1.2620001
-0.11998753 -0.078157015 1.258
-0.11759866 -0.078032754 1.256
-0.11530868 -0.077970639 1.2550001
-0.11302219 -0.077908501 1.2540001
-0.11082759 -0.077908501 1.2540001
-0.10863298 -0.077908501 1.2540001
-0.10635349 -0.077846378 1.253
-0.10366187 -0.077473611 1.2470001
-0.10115399 -0.077225097 1.243
-0.09850087 -0.076852337 1.2370001
-0.095167831 -0.075920403 1.222
-0.092267938 -0.075299129 1.212
-0.090072468 -0.075236998 1.2110001
-0.087953113 -0.075236998 1.2110001
-0.085833758 -0.075236998 1.2110001
-0.083507024 -0.075050615 1.2080001
-0.081056029 -0.07473997 1.2030001
-0.078688167 -0.074491456 1.199
-0.076334298 -0.074242949 1.1950001
-0.074180819 -0.074180819 1.194
-0.07203085 -0.074118696 1.1930001
-0.06976711 -0.073932312 1.1900001
-0.067627631 -0.073870182 1.189
-0.065491654 -0.073808059 1.1880001
-0.063412555 -0.073808059 1.1880001
-0.061333455 -0.073808059 1.1880001
-0.05930423 -0.073870182 1.189
-0.05727151 -0.073932312 1.1900001
-0.055188909 -0.073932312 1.1900001
-0.053106308 -0.073932312 1.1900001
-0.051066589 -0.073994443 1.1910001
-0.04902336 -0.074056566 1.192
-0.046858508 -0.073932312 1.1900001
-0.044813536 -0.073994443 1.1910001
-0.042729184 -0.073994443 1.1910001
-0.040713087 -0.074118696 1.1930001
-0.038625237 -0.074118696 1.1930001
-0.036598638 -0.074242949 1.1950001
-0.034507286 -0.074242949 1.1950001
-0.032415938 -0.074242949 1.1950001
-0.030375337 -0.074367203 1.197
-0.028445872 -0.074802108 1.2040001
-0.026426272 -0.075050615 1.2080001
-0.024332298 -0.075112745 1.2090001
-0.02219807 -0.075050615 1.2080001
-0.020133846 -0.075236998 1.2110001
-0.018044244 -0.075361252 1.2130001
-0.01596077 -0.075547643 1.2160001
-0.013878169 -0.07579615 1.22
-0.011810445 -0.076231055 1.2270001
-0.12257766 -0.076196916 1.2620001
-0.11979677 -0.075834654 1.256
-0.11731777 -0.075653516 1.253
-0.11512492 -0.075653516 1.253
-0.11293206 -0.075653516 1.253
-0.11091597 -0.075774282 1.2550001
-0.10871962 -0.075774282 1.2550001
-0.10635349 -0.075653516 1.253
-0.10366187 -0.075291254 1.2470001
-0.10115399 -0.075049736 1.243
-0.098421238 -0.074627094 1.2360001
-0.095167831 -0.073781803 1.222
-0.092191823 -0.073117651 1.2110001
-0.08992371 -0.072996892 1.2090001
-0.087735228 -0.072936513 1.2080001
-0.085692003 -0.072996892 1.2090001
-0.083299637 -0.072755381 1.205
-0.080853894 -0.072453491 1.2
-0.078425653 -0.072151601 1.1950001
-0.076142661 -0.071970463 1.192
-0.074056566 -0.071970463 1.192
-0.071910091 -0.071910091 1.1910001
-0.06964986 -0.07172896 1.1880001
-0.067570761 -0.07172896 1.1880001
-0.065491654 -0.07172896 1.1880001
-0.063359179 -0.071668573 1.187
-0.061230201 -0.071608201 1.1860001
-0.059204478 -0.071668573 1.187
-0.057175256 -0.07172896 1.1880001
-0.055142529 -0.071789332 1.189
-0.053017057 -0.07172896 1.1880001
-0.050937958 -0.07172896 1.1880001
-0.048899978 -0.071789332 1.189
-0.046740375 -0.071668573 1.187
-0.044700652 -0.07172896 1.1880001
-0.042621553 -0.07172896 1.1880001
-0.040644836 -0.071910091 1.1910001
-0.038560484 -0.071910091 1.1910001
-0.036506757 -0.071970463 1.192
-0.034391783 -0.071910091 1.1910001
-0.032307431 -0.071910091 1.1910001
-0.030248456 -0.071970463 1.192
-0.028304113 -0.072332732 1.1980001
-0.026316892 -0.072634622 1.2030001
-0.02427192 -0.072815761 1.2060001
-0.02219807 -0.072936513 1.2080001
-0.02011722 -0.073057272 1.21
-0.018029368 -0.073178023 1.212
-0.015934518 -0.073298782 1.2140001
-0.013844041 -0.073479913 1.217
-0.011781568 -0.073902562 1.2240001
-0.12008291 -0.073812433 1.2590001
-0.11750504 -0.073577918 1.2550001
-0.11540056 -0.073636547 1.256
-0.11320246 -0.073636547 1.256
-0.11109273 -0.073695183 1.2570001
-0.10889287 -0.073695183 1.2570001
-0.10652326 -0.073577918 1.2550001
-0.10391125 -0.073284775 1.25
-0.10115399 -0.07287439 1.243
-0.098580502 -0.072581239 1.238
-0.092724718 -0.071408689 1.2180001
-0.090295605 -0.071174182 1.2140001
-0.088025734 -0.071056925 1.212
-0.085762881 -0.07093966 1.21
-0.083299637 -0.070646524 1.205
-0.080853894 -0.070353389 1.2
-0.07855691 -0.07017751 1.197
-0.076334298 -0.070060246 1.1950001
-0.074242949 -0.070060246 1.1950001
-0.072091222 -0.070001617 1.194
-0.06976711 -0.06976711 1.1900001
-0.067570761 -0.06964986 1.1880001
-0.065436527 -0.069591224 1.187
-0.063412555 -0.06964986 1.1880001
-0.06128183 -0.069591224 1.187
-0.059204478 -0.069591224 1.187
-0.057223383 -0.069708481 1.189
-0.055188909 -0.06976711 1.1900001
-0.053061679 -0.069708481 1.189
-0.050937958 -0.06964986 1.1880001
-0.048899978 -0.069708481 1.189
-0.046779756 -0.06964986 1.1880001
-0.044775907 -0.06976711 1.1900001
-0.042693306 -0.06976711 1.1900001
-0.040644836 -0.069825739 1.1910001
-0.038528107 -0.06976711 1.1900001
-0.036476135 -0.069825739 1.1910001
-0.034391783 -0.069825739 1.1910001
-0.032307431 -0.069825739 1.1910001
-0.030248456 -0.06988436 1.192
-0.028233236 -0.070060246 1.1950001
-0.026273141 -0.070412017 1.2010001
-0.02427192 -0.07070516 1.2060001
-0.022216447 -0.070881039 1.2090001
-0.02015047 -0.071056925 1.212
-0.018044244 -0.071115553 1.2130001
-0.01596077 -0.071291439 1.2160001
-0.013855417 -0.071408689 1.2180001
-0.011800819 -0.071877718 1.2260001
-0.1201783 -0.071665958 1.2600001
-0.11759866 -0.071438439 1.256
-0.11530868 -0.071381561 1.2550001
-0.11311233 -0.071381561 1.2550001
-0.11091597 -0.071381561 1.2550001
-0.10863298 -0.071324684 1.2540001
-0.10643838 -0.071324684 1.2540001
-0.10382812 -0.071040295 1.2490001
-0.10115399 -0.070699029 1.243
-0.098660134 -0.070471518 1.2390001
-0.092496328 -0.069106452 1.215
-0.090072468 -0.068878941 1.2110001
-0.087880477 -0.068822064 1.21
-0.085692003 -0.068765193 1.2090001
-0.08309225 -0.068367042 1.202
-0.080786511 -0.068196408 1.199
-0.078491278 -0.068025775 1.1960001
-0.076270424 -0.06791202 1.194
-0.074056566 -0.067798264 1.192
-0.071849711 -0.067684516 1.1900001
-0.06964986 -0.067570761 1.1880001
-0.067570761 -0.067570761 1.1880001
-0.065381408 -0.067456998 1.1860001
-0.063252419 -0.06740012 1.1850001
-0.061126944 -0.067343242 1.184
-0.0591546 -0.067456998 1.1860001
-0.057175256 -0.067570761 1.1880001
-0.055096157 -0.067570761 1.1880001
-0.0529278 -0.067456998 1.1860001
-0.050809324 -0.06740012 1.1850001
-0.048735473 -0.06740012 1.1850001
-0.046701003 -0.067456998 1.1860001
-0.044663023 -0.067513876 1.187
-0.042585675 -0.067513876 1.187
-0.040542454 -0.067570761 1.1880001
-0.038430978 -0.067513876 1.187
-0.036323 -0.067456998 1.1860001
-0.034247402 -0.067456998 1.1860001
-0.032171801 -0.067456998 1.1860001
-0.030121574 -0.067513876 1.187
-0.028115105 -0.067684516 1.1900001
-0.026163761 -0.068025775 1.1960001
-0.024191415 -0.068367042 1.202
-0.022179693 -0.06865143 1.207
-0.020100595 -0.068765193 1.2090001
-0.018029368 -0.068935819 1.212
-0.015947644 -0.069106452 1.215
-0.013866793 -0.069333971 1.2190001
-0.011781568 -0.069618352 1.2240001
-0.1205598 -0.069681354 1.2640001
-0.11787956 -0.06940572 1.2590001
-0.11549245 -0.069295458 1.2570001
-0.11329258 -0.069295458 1.2570001
-0.11109273 -0.069295458 1.2570001
-0.10889287 -0.069295458 1.2570001
-0.10660813 -0.069240339 1.256
-0.10391125 -0.068909563 1.25
-0.10115399 -0.068523675 1.243
-0.098739758 -0.068358295 1.24
-0.095790863 -0.067807011 1.23
-0.092724718 -0.067145482 1.2180001
-0.090221219 -0.066869847 1.2130001
-0.08809837 -0.066869847 1.2130001
-0.085904635 -0.066814721 1.212
-0.083299637 -0.066428825 1.205
-0.080921277 -0.066208318 1.2010001
-0.078622542 -0.066042937 1.1980001
-0.076398179 -0.065932676 1.1960001
-0.074118696 -0.065767296 1.1930001
-0.071910091 -0.065657042 1.1910001
-0.06976711 -0.065601908 1.1900001
-0.067627631 -0.065546781 1.189
-0.065436527 -0.065436527 1.187
-0.063199043 -0.065271147 1.184
-0.061023686 -0.065160885 1.182
-0.05900497 -0.06521602 1.1830001
-0.057127129 -0.065436527 1.187
-0.055049777 -0.065436527 1.187
-0.0529278 -0.065381408 1.1860001
-0.050809324 -0.065326273 1.1850001
-0.048776601 -0.065381408 1.1860001
-0.046779756 -0.065491654 1.1880001
-0.044663023 -0.065436527 1.187
-0.0425498 -0.065381408 1.1860001
-0.040508326 -0.065436527 1.187
-0.03846335 -0.065491654 1.1880001
-0.036384251 -0.065491654 1.1880001
-0.034276277 -0.065436527 1.187
-0.032144673 -0.065326273 1.1850001
-0.030020073 -0.06521602 1.1830001
-0.027973346 -0.065271147 1.184
-0.026032504 -0.065601908 1.1900001
-0.024151163 -0.066153191 1.2
-0.022179693 -0.066539079 1.207
-0.02011722 -0.066704459 1.21
-0.018029368 -0.066814721 1.212
-0.015947644 -0.066980101 1.215
-0.013878169 -0.067255735 1.22
-0.011791193 -0.067531377 1.225
-0.12075056 -0.067576006 1.266
-0.11759866 -0.067042232 1.256
-0.11521681 -0.066935472 1.2540001
-0.11302219 -0.066935472 1.2540001
-0.11091597 -0.066988856 1.2550001
-0.10880624 -0.067042232 1.256
-0.10643838 -0.066935472 1.2540001
-0.10382812 -0.066668585 1.2490001
-0.10115399 -0.066348314 1.243
-0.098660134 -0.06613481 1.2390001
-0.095790863 -0.065654412 1.23
-0.092496328 -0.06485375 1.215
-0.08992371 -0.064533487 1.2090001
-0.087880477 -0.064586863 1.21
-0.085904635 -0.064693615 1.212
-0.083507024 -0.064480104 1.2080001
-0.080921277 -0.064106472 1.2010001
-0.078491278 -0.063839577 1.1960001
-0.07620655 -0.063679442 1.1930001
-0.073994443 -0.06357269 1.1910001
-0.071849711 -0.063519314 1.1900001
-0.069591224 -0.063359179 1.187
-0.067570761 -0.063412555 1.1880001
-0.065381408 -0.063305803 1.1860001
-0.063199043 -0.063199043 1.184
-0.061023686 -0.063092291 1.182
-0.058905218 -0.063038915 1.1810001
-0.057030872 -0.063252419 1.1850001
-0.054910641 -0.063199043 1.184
-0.052883171 -0.063252419 1.1850001
-0.050723568 -0.063145667 1.1830001
-0.048694346 -0.063199043 1.184
-0.046661623 -0.063252419 1.1850001
-0.044550147 -0.063199043 1.184
-0.042478044 -0.063199043 1.184
-0.040440075 -0.063252419 1.1850001
-0.038430978 -0.063359179 1.187
-0.036353625 -0.063359179 1.187
-0.034218524 -0.063252419 1.1850001
-0.032009043 -0.062985532 1.1800001
-0.029867815 -0.062825404 1.177
-0.027784338 -0.062772021 1.176
-0.025791867 -0.062932156 1.179
-0.023949903 -0.063519314 1.1900001
-0.022087814 -0.064159833 1.202
-0.020083968 -0.064480104 1.2080001
-0.017984742 -0.064533487 1.2090001
-0.015895141 -0.064640239 1.2110001
-0.01382129 -0.06485375 1.215
-0.011733441 -0.065067261 1.2190001
-0.0096315881 -0.065280773 1.223
-0.1176923 -0.064895749 1.2570001
-0.11503305 -0.064637616 1.2520001
-0.11293206 -0.064689241 1.253
-0.11091597 -0.064792499 1.2550001
-0.10863298 -0.064740874 1.2540001
-0.10626862 -0.064637616 1.2520001
-0.10382812 -0.064482726 1.2490001
-0.10123538 -0.064224593 1.2440001
-0.098739758 -0.064018086 1.24
-0.095790863 -0.063501805 1.23
-0.092648581 -0.062830649 1.217
-0.089998089 -0.062469255 1.21
-0.087880477 -0.062469255 1.21
-0.08597552 -0.062624142 1.2130001
-0.083645277 -0.062469255 1.21
-0.081056029 -0.062107868 1.2030001
-0.078622542 -0.061849732 1.1980001
-0.076334298 -0.061694849 1.1950001
-0.074118696 -0.061591592 1.1930001
-0.071970463 -0.061539963 1.192
-0.069708481 -0.06138508 1.189
-0.067627631 -0.06138508 1.189
-0.065491654 -0.061333455 1.1880001
-0.063305803 -0.061230201 1.1860001
-0.061075319 -0.061075319 1.1830001
-0.058855332 -0.060920436 1.1800001
-0.05688649 -0.061023686 1.182
-0.054864269 -0.061075319 1.1830001
-0.052838545 -0.061126944 1.184
-0.050723568 -0.061075319 1.1830001
-0.048735473 -0.061178569 1.1850001
-0.046740375 -0.06128183 1.187
-0.044625401 -0.061230201 1.1860001
-0.042513922 -0.061178569 1.1850001
-0.040440075 -0.061178569 1.1850001
-0.038430978 -0.06128183 1.187
-0.036323 -0.061230201 1.1860001
-0.03416077 -0.061075319 1.1830001
-0.031954788 -0.060817182 1.1780001
-0.029817061 -0.060662299 1.1750001
-0.027737085 -0.060610667 1.174
-0.025726238 -0.060713924 1.176
-0.023809021 -0.061075319 1.1830001
-0.021995934 -0.061798099 1.197
-0.020050716 -0.062262751 1.2060001
-0.017984742 -0.062417638 1.2090001
-0.015895141 -0.062520891 1.2110001
-0.013832666 -0.062779024 1.2160001
-0.011743065 -0.062985532 1.22
-0.0096315881 -0.063140415 1.223
-0.11759866 -0.062646016 1.256
-0.11494116 -0.062396627 1.251
-0.11284194 -0.062446512 1.2520001
-0.11073921 -0.062496379 1.253
-0.10845973 -0.062446512 1.2520001
-0.10601398 -0.062296875 1.2490001
-0.10366187 -0.062197119 1.2470001
-0.10123538 -0.062047489 1.2440001
-0.098660134 -0.061798099 1.2390001
-0.09571299 -0.061299331 1.2290001
-0.092572458 -0.060650922 1.2160001
-0.089998089 -0.060351655 1.21
-0.087807857 -0.060301784 1.2090001
-0.085904635 -0.060451411 1.212
-0.083645277 -0.060351655 1.21
-0.081190787 -0.060102273 1.205
-0.078753792 -0.059852883 1.2
-0.076398179 -0.059653375 1.1960001
-0.074118696 -0.059503745 1.1930001
-0.071970463 -0.05945386 1.192
-0.06976711 -0.059354108 1.1900001
-0.067627631 -0.05930423 1.189
-0.065491654 -0.059254356 1.1880001
-0.063359179 -0.059204478 1.187
-0.061126944 -0.05905484 1.184
-0.058955088 -0.058955088 1.182
-0.056934617 -0.05900497 1.1830001
-0.054817893 -0.058955088 1.182
-0.05279392 -0.05900497 1.1830001
-0.050680693 -0.058955088 1.182
-0.048694346 -0.05905484 1.184
-0.046701003 -0.0591546 1.1860001
-0.044663023 -0.059204478 1.187
-0.0425498 -0.0591546 1.1860001
-0.040440075 -0.059104726 1.1850001
-0.038333844 -0.05905484 1.184
-0.036200494 -0.058955088 1.182
-0.034074143 -0.058855332 1.1800001
-0.03192766 -0.058705702 1.177
-0.029817061 -0.05860595 1.1750001
-0.027737085 -0.058556069 1.174
-0.025726238 -0.058655821 1.176
-0.023768771 -0.058905218 1.1810001
-0.021940805 -0.059553616 1.194
-0.020017464 -0.060052395 1.2040001
-0.01795499 -0.060202025 1.207
-0.015855763 -0.060251903 1.2080001
-0.013787164 -0.060451411 1.212
-0.011704564 -0.060650922 1.2160001
-0.0096158376 -0.060900312 1.2210001
-0.1176923 -0.06049604 1.2570001
-0.11503305 -0.060255408 1.2520001
-0.11284194 -0.060255408 1.2520001
-0.11065084 -0.060255408 1.2520001
-0.10819984 -0.060111023 1.2490001
-0.10567446 -0.059918508 1.245
-0.10341249 -0.059870385 1.2440001
-0.10115399 -0.059822258 1.243
-0.098739758 -0.059677869 1.24
-0.095790863 -0.059196599 1.23
-0.092648581 -0.05857094 1.217
-0.09014684 -0.058330309 1.212
-0.087807857 -0.058185928 1.2090001
-0.085833758 -0.058282182 1.2110001
-0.083507024 -0.058137801 1.2080001
-0.081190787 -0.057993416 1.205
-0.078688167 -0.057704654 1.199
-0.076398179 -0.057560276 1.1960001
-0.074118696 -0.057415891 1.1930001
-0.071910091 -0.057319637 1.1910001
-0.06976711 -0.05727151 1.1900001
-0.067570761 -0.057175256 1.1880001
-0.065491654 -0.057175256 1.1880001
-0.063252419 -0.057030872 1.1850001
-0.061075319 -0.056934617 1.1830001
-0.058905218 -0.056838367 1.1810001
-0.056838367 -0.056838367 1.1810001
-0.054771516 -0.056838367 1.1810001
-0.052749291 -0.05688649 1.182
-0.050680693 -0.05688649 1.182
-0.048653223 -0.056934617 1.1830001
-0.046622243 -0.056982744 1.184
-0.044550147 -0.056982744 1.184
-0.042478044 -0.056982744 1.184
-0.04037182 -0.056934617 1.1830001
-0.038301472 -0.056934617 1.1830001
-0.036169868 -0.056838367 1.1810001
-0.034074143 -0.056790233 1.1800001
-0.032009043 -0.056790233 1.1800001
-0.029918566 -0.056742106 1.179
-0.027831592 -0.056693986 1.1780001
-0.025813743 -0.056790233 1.1800001
-0.023849273 -0.057030872 1.1850001
-0.021940805 -0.057464015 1.194
-0.019967588 -0.057800915 1.2010001
-0.017925238 -0.057993416 1.205
-0.015842637 -0.058089674 1.207
-0.013764413 -0.058234055 1.21
-0.011704564 -0.05852282 1.2160001
-0.0096158376 -0.058763459 1.2210001
-0.0075034858 -0.058955964 1.225
-0.11675601 -0.057832412 1.2470001
-0.11512492 -0.058110677 1.253
-0.11275181 -0.058017917 1.251
-0.11047406 -0.057971541 1.25
-0.10793995 -0.057786033 1.2460001
-0.10558959 -0.057693284 1.2440001
-0.10332935 -0.057646897 1.243
-0.10107262 -0.057600524 1.2420001
-0.098660134 -0.057461396 1.2390001
-0.095790863 -0.057043996 1.23
-0.092648581 -0.056441091 1.217
-0.090221219 -0.056255583 1.2130001
-0.087807857 -0.056070078 1.2090001
-0.085904635 -0.056209207 1.212
-0.083437897 -0.055977318 1.207
-0.081056029 -0.055791814 1.2030001
-0.078622542 -0.055559926 1.1980001
-0.076398179 -0.055467173 1.1960001
-0.074180819 -0.055374417 1.194
-0.071970463 -0.055281661 1.192
-0.069825739 -0.055235289 1.1910001
-0.067684516 -0.055188909 1.1900001
-0.065601908 -0.055188909 1.1900001
-0.063412555 -0.055096157 1.1880001
-0.06128183 -0.055049777 1.187
-0.05905484 -0.054910641 1.184
-0.056934617 -0.054864269 1.1830001
-0.054817893 -0.054817893 1.182
-0.05279392 -0.054864269 1.1830001
-0.050723568 -0.054864269 1.1830001
-0.048653223 -0.054864269 1.1830001
-0.04658287 -0.054864269 1.1830001
-0.044512521 -0.054864269 1.1830001
-0.042478044 -0.054910641 1.184
-0.040405948 -0.054910641 1.184
-0.038333844 -0.054910641 1.184
-0.036200494 -0.054817893 1.182
-0.034131892 -0.054817893 1.182
-0.032063294 -0.054817893 1.182
-0.029969322 -0.054771516 1.1810001
-0.027902471 -0.054771516 1.1810001
-0.025901247 -0.054910641 1.184
-0.023949903 -0.055188909 1.1900001
-0.021977559 -0.055467173 1.1960001
-0.019950962 -0.055652682 1.2
-0.017895486 -0.055791814 1.2030001
-0.015816387 -0.055884566 1.205
-0.013741662 -0.056023698 1.2080001
-0.011685314 -0.056301963 1.2140001
-0.0096079633 -0.056580227 1.22
-0.11778592 -0.056140948 1.258
-0.11540056 -0.056051698 1.256
-0.11257154 -0.055739313 1.2490001
-0.10994379 -0.055516176 1.2440001
-0.10733355 -0.055293038 1.2390001
-0.10516519 -0.055293038 1.2390001
-0.10299684 -0.055293038 1.2390001
-0.10082848 -0.055293038 1.2390001
-0.098421238 -0.055159159 1.2360001
-0.09571299 -0.054846767 1.2290001
-0.092496328 -0.054221984 1.215
-0.090072468 -0.054043479 1.2110001
-0.087735228 -0.053909596 1.2080001
-0.08597552 -0.054132733 1.2130001
-0.083507024 -0.053909596 1.2080001
-0.080921277 -0.053597208 1.2010001
-0.07855691 -0.053418696 1.197
-0.076270424 -0.053284816 1.194
-0.074118696 -0.053240187 1.1930001
-0.071849711 -0.053106308 1.1900001
-0.06976711 -0.053106308 1.1900001
-0.067627631 -0.053061679 1.189
-0.065546781 -0.053061679 1.189
-0.063412555 -0.053017057 1.1880001
-0.061230201 -0.0529278 1.1860001
-0.058955088 -0.052749291 1.182
-0.056790233 -0.052660037 1.1800001
-0.054771516 -0.052704666 1.1810001
-0.052704666 -0.052704666 1.1810001
-0.050637819 -0.052704666 1.1810001
-0.048529837 -0.052660037 1.1800001
-0.046464738 -0.052660037 1.1800001
-0.044362012 -0.052615408 1.179
-0.042334538 -0.052660037 1.1800001
-0.040235311 -0.052615408 1.179
-0.038236719 -0.052704666 1.1810001
-0.036139242 -0.052660037 1.1800001
-0.034103017 -0.052704666 1.1810001
-0.03203617 -0.052704666 1.1810001
-0.029969322 -0.052704666 1.1810001
-0.027926095 -0.052749291 1.182
-0.025945002 -0.0529278 1.1860001
-0.02397003 -0.053150937 1.1910001
-0.021940805 -0.053284816 1.194
-0.019901082 -0.053418696 1.197
-0.017865736 -0.053597208 1.2010001
-0.015803263 -0.053731091 1.2040001
-0.013741662 -0.053909596 1.2080001
-0.011675688 -0.054132733 1.2130001
-0.0095922127 -0.054355871 1.2180001
-0.11320246 -0.053853594 1.256
-0.11003217 -0.053381946 1.245
-0.10742017 -0.053167559 1.24
-0.10533495 -0.053210437 1.2410001
-0.10324623 -0.053253319 1.2420001
-0.10090986 -0.053167559 1.24
-0.098341607 -0.052953172 1.235
-0.095557235 -0.052610163 1.2270001
-0.092572458 -0.052138511 1.2160001
-0.09014684 -0.051967002 1.212
-0.087953113 -0.051924128 1.2110001
-0.086046398 -0.052052759 1.2140001
-0.083645277 -0.051881246 1.21
-0.081123412 -0.051623989 1.2040001
-0.078753792 -0.05145248 1.2
-0.07646206 -0.051323846 1.197
-0.074242949 -0.051238094 1.1950001
-0.07203085 -0.051152341 1.1930001
-0.069942996 -0.051152341 1.1930001
-0.067855142 -0.051152341 1.1930001
-0.065712161 -0.051109459 1.192
-0.063519314 -0.051023707 1.1900001
-0.061333455 -0.050937958 1.1880001
-0.059104726 -0.050809324 1.1850001
-0.05688649 -0.050680693 1.182
-0.054817893 -0.050680693 1.182
-0.052704666 -0.050637819 1.1810001
-0.050637819 -0.050637819 1.1810001
-0.048529837 -0.050594937 1.1800001
-0.046504118 -0.050637819 1.1810001
-0.044399638 -0.050594937 1.1800001
-0.042334538 -0.050594937 1.1800001
-0.040235311 -0.050552059 1.179
-0.038236719 -0.050637819 1.1810001
-0.036169868 -0.050637819 1.1810001
-0.034103017 -0.050637819 1.1810001
-0.032063294 -0.050680693 1.182
-0.029994693 -0.050680693 1.182
-0.027926095 -0.050680693 1.182
-0.025945002 -0.050852202 1.1860001
-0.023990154 -0.051109459 1.192
-0.021977559 -0.051280972 1.1960001
-0.019934334 -0.051409598 1.199
-0.017895486 -0.051581111 1.2030001
-0.015829513 -0.051709745 1.2060001
-0.013764413 -0.051881246 1.21
-0.011685314 -0.052052759 1.2140001
-0.0096158376 -0.052352898 1.2210001
-0.11038569 -0.0513676 1.2490001
-0.1075068 -0.051038586 1.2410001
-0.1055047 -0.051120836 1.243
-0.10316309 -0.051038586 1.2410001
-0.10066573 -0.050874077 1.2370001
-0.097943462 -0.050586186 1.23
-0.095245719 -0.0502983 1.223
-0.092267938 -0.0498459 1.212
-0.089998089 -0.049763646 1.21
-0.087735228 -0.049681395 1.2080001
-0.085904635 -0.0498459 1.212
-0.083576158 -0.049722522 1.2090001
-0.081123412 -0.049516886 1.2040001
-0.078753792 -0.049352378 1.2
