# .PCD v0.7 - Point Cloud Data file format
VERSION 0.7
FIELDS x y z
SIZE 4 4 4
TYPE F F F
COUNT 1 1 1
WIDTH 1413
HEIGHT 1
VIEWPOINT 0 0 0 1 0 0 0
POINTS 1413
DATA ascii
-0.10321297 -0.09470056 1.2160001
-0.10100174 -0.094622679 1.215
-0.098549873 -0.09431117 1.2110001
-0.096350886 -0.094233289 1.21
-0.093921773 -0.093921773 1.2060001
-0.091582783 -0.093688145 1.2030001
-0.089179918 -0.093376614 1.199
-0.086791053 -0.093065105 1.1950001
-0.08455795 -0.092909351 1.1930001
-0.082331844 -0.092753597 1.1910001
-0.080180116 -0.092675716 1.1900001
-0.078097515 -0.092675716 1.1900001
-0.075951025 -0.092597827 1.189
-0.073683806 -0.092364199 1.1860001
-0.07142707 -0.092130564 1.1830001
-0.069180831 -0.091896929 1.1800001
-0.067001984 -0.091741174 1.1780001
-0.064995505 -0.09181904 1.179
-0.062932156 -0.09181904 1.179
-0.060920436 -0.091896929 1.1800001
-0.058805458 -0.09181904 1.179
-0.05688649 -0.092052683 1.182
-0.054817893 -0.092052683 1.182
-0.052838545 -0.092208438 1.184
-0.050723568 -0.092130564 1.1830001
-0.048694346 -0.092208438 1.184
-0.046701003 -0.092364199 1.1860001
-0.044663023 -0.09244208 1.187
-0.042693306 -0.092675716 1.1900001
-0.040678959 -0.09283147 1.192
-0.038657613 -0.092987224 1.194
-0.036629267 -0.093142986 1.1960001
-0.034593917 -0.093298748 1.1980001
-0.032632947 -0.093688145 1.2030001
-0.030603725 -0.093921773 1.2060001
-0.028540375 -0.094077535 1.2080001
-0.026535653 -0.094466932 1.2130001
-0.024533559 -0.094934203 1.2190001
-0.022492085 -0.0953236 1.2240001
-0.020366605 -0.095401466 1.225
-0.01829713 -0.095790863 1.23
-0.12141209 -0.095160827 1.25
-0.11941526 -0.095313095 1.2520001
-0.11563244 -0.094018899 1.235
-0.11328734 -0.093866646 1.233
-0.11058871 -0.093409881 1.2270001
-0.10826459 -0.093257613 1.225
-0.10603411 -0.093181491 1.2240001
-0.10338273 -0.092724718 1.2180001
-0.10116799 -0.092648581 1.217
-0.098468497 -0.092115685 1.21
-0.096350886 -0.092115685 1.21
-0.093843892 -0.091735043 1.205
-0.09150666 -0.09150666 1.202
-0.08903116 -0.09112601 1.197
-0.086791053 -0.090973757 1.1950001
-0.08462882 -0.09089762 1.194
-0.082539223 -0.09089762 1.194
-0.08038225 -0.090821505 1.1930001
-0.078294396 -0.090821505 1.1930001
-0.076078795 -0.090669252 1.1910001
-0.073808059 -0.090440862 1.1880001
-0.071487442 -0.090136342 1.184
-0.06923946 -0.089907959 1.1810001
-0.067115732 -0.089831829 1.1800001
-0.065050632 -0.089831829 1.1800001
-0.062985532 -0.089831829 1.1800001
-0.060920436 -0.089831829 1.1800001
-0.058805458 -0.089755692 1.179
-0.056838367 -0.089907959 1.1810001
-0.054864269 -0.090060212 1.1830001
-0.0529278 -0.090288602 1.1860001
-0.050852202 -0.090288602 1.1860001
-0.048858855 -0.090440862 1.1880001
-0.046858508 -0.090593114 1.1900001
-0.044851158 -0.090745367 1.192
-0.042800937 -0.090821505 1.1930001
-0.040781341 -0.090973757 1.1950001
-0.038722366 -0.091049887 1.1960001
-0.036690518 -0.091202147 1.1980001
-0.034651671 -0.0913544 1.2
-0.032660075 -0.09165892 1.2040001
-0.030603725 -0.091811173 1.2060001
-0.028564001 -0.092039563 1.2090001
-0.026623156 -0.092648581 1.217
-0.02461406 -0.093105353 1.223
-0.022510458 -0.093257613 1.225
-0.020383231 -0.093333744 1.2260001
-0.018341757 -0.093866646 1.233
-0.12350082 -0.092898853 1.2490001
-0.12131497 -0.092898853 1.2490001
-0.11931988 -0.093047611 1.251
-0.11553882 -0.091783173 1.2340001
-0.11310358 -0.091560036 1.2310001
-0.11049858 -0.091188148 1.2260001
-0.10817622 -0.091039389 1.2240001
-0.10594748 -0.090965003 1.223
-0.10346761 -0.090667494 1.2190001
-0.10125113 -0.090593114 1.2180001
-0.098549873 -0.090072468 1.2110001
-0.096111998 -0.089774944 1.207
-0.093610257 -0.089403048 1.202
-0.091202147 -0.089105546 1.1980001
-0.088733651 -0.088733651 1.1930001
-0.086500548 -0.088584892 1.1910001
-0.084416196 -0.088584892 1.1910001
-0.082400963 -0.088659264 1.192
-0.080247492 -0.088584892 1.1910001
-0.078097515 -0.088510513 1.1900001
-0.075951025 -0.088436134 1.189
-0.073808059 -0.088361755 1.1880001
-0.071547821 -0.088138625 1.1850001
-0.069298089 -0.08791548 1.182
-0.067229487 -0.08791548 1.182
-0.065160885 -0.08791548 1.182
-0.063092291 -0.08791548 1.182
-0.060972068 -0.087841108 1.1810001
-0.058855332 -0.087766729 1.1800001
-0.056838367 -0.087841108 1.1810001
-0.054817893 -0.08791548 1.182
-0.052883171 -0.088138625 1.1850001
-0.050852202 -0.088213004 1.1860001
-0.048858855 -0.088361755 1.1880001
-0.046819128 -0.088436134 1.189
-0.044738278 -0.088436134 1.189
-0.042657427 -0.088436134 1.189
-0.040610708 -0.088510513 1.1900001
-0.038528107 -0.088510513 1.1900001
-0.036506757 -0.088659264 1.192
-0.034536164 -0.088956788 1.1960001
-0.032551568 -0.089254305 1.2
-0.030578347 -0.089626193 1.205
-0.028564001 -0.08992371 1.2090001
-0.026645033 -0.090593114 1.2180001
-0.024593934 -0.090890624 1.222
-0.022528837 -0.091188148 1.2260001
-0.020399857 -0.091262527 1.2270001
-0.018356634 -0.091783173 1.2340001
-0.11553882 -0.08962357 1.2340001
-0.11319546 -0.089478314 1.2320001
-0.11112947 -0.089550942 1.233
-0.10879487 -0.089405678 1.2310001
-0.10629401 -0.089115173 1.2270001
-0.10372224 -0.088752024 1.222
-0.10125113 -0.088461511 1.2180001
-0.098631248 -0.088025734 1.212
-0.096111998 -0.087662593 1.207
-0.093688145 -0.087372087 1.2030001
-0.091202147 -0.087008946 1.1980001
-0.088808022 -0.086718418 1.194
-0.086500548 -0.086500548 1.1910001
-0.084416196 -0.086500548 1.1910001
-0.082331844 -0.086500548 1.1910001
-0.080112733 -0.086355284 1.189
-0.077966258 -0.086282656 1.1880001
-0.075951025 -0.086355284 1.189
-0.073932312 -0.086427912 1.1900001
-0.071789332 -0.086355284 1.189
-0.069591224 -0.086210027 1.187
-0.067513876 -0.086210027 1.187
-0.065491654 -0.086282656 1.1880001
-0.063465931 -0.086355284 1.189
-0.061333455 -0.086282656 1.1880001
-0.059204478 -0.086210027 1.187
-0.057078999 -0.086137407 1.1860001
-0.055003401 -0.086137407 1.1860001
-0.053017057 -0.086282656 1.1880001
-0.051023707 -0.086427912 1.1900001
-0.04902336 -0.086573169 1.192
-0.046937261 -0.086573169 1.192
-0.044775907 -0.086427912 1.1900001
-0.042657427 -0.086355284 1.189
-0.040576581 -0.086355284 1.189
-0.038560484 -0.086500548 1.1910001
-0.036568012 -0.086718418 1.194
-0.034593917 -0.087008946 1.1980001
-0.032605819 -0.087299451 1.202
-0.0306291 -0.087662593 1.207
-0.028634878 -0.088025734 1.212
-0.026688784 -0.088606767 1.22
-0.024694566 -0.089115173 1.2270001
-0.022565586 -0.089187793 1.228
-0.020449735 -0.08933305 1.23
-0.018356634 -0.08962357 1.2340001
-0.11600697 -0.087818362 1.2390001
-0.11347109 -0.087534837 1.235
-0.11130974 -0.087534837 1.235
-0.10870648 -0.087180451 1.23
-0.10620737 -0.086896941 1.2260001
-0.10346761 -0.086400792 1.2190001
-0.10091861 -0.086046398 1.2140001
-0.098305739 -0.085621126 1.2080001
-0.095873125 -0.085337617 1.2040001
-0.093454503 -0.0850541 1.2
-0.090973757 -0.084699705 1.1950001
-0.088510513 -0.084345318 1.1900001
-0.086282656 -0.084203556 1.1880001
-0.084203556 -0.084203556 1.1880001
-0.082124457 -0.084203556 1.1880001
-0.079977974 -0.084132679 1.187
-0.077835001 -0.084061801 1.1860001
-0.075823277 -0.084132679 1.187
-0.073808059 -0.084203556 1.1880001
-0.07172896 -0.084203556 1.1880001
-0.069591224 -0.084132679 1.187
-0.067513876 -0.084132679 1.187
-0.065436527 -0.084132679 1.187
-0.063359179 -0.084132679 1.187
-0.061333455 -0.084203556 1.1880001
-0.05930423 -0.084274426 1.189
-0.057223383 -0.084274426 1.189
-0.055049777 -0.084132679 1.187
-0.0529278 -0.084061801 1.1860001
-0.050852202 -0.084061801 1.1860001
-0.048817724 -0.084132679 1.187
-0.046779756 -0.084203556 1.1880001
-0.044663023 -0.084132679 1.187
-0.042585675 -0.084132679 1.187
-0.040508326 -0.084132679 1.187
-0.038495727 -0.084274426 1.189
-0.036476135 -0.084416196 1.1910001
-0.034478411 -0.08462882 1.194
-0.03252444 -0.084983215 1.199
-0.030527595 -0.085266739 1.2030001
-0.028611254 -0.085833758 1.2110001
-0.026623156 -0.08625903 1.217
-0.024634188 -0.086755179 1.2240001
-0.022510458 -0.086826049 1.225
-0.020383231 -0.086896941 1.2260001
-0.018282257 -0.087109581 1.2290001
-0.11638148 -0.085926518 1.243
-0.11328734 -0.085235231 1.233
-0.11121961 -0.085304365 1.2340001
-0.10870648 -0.085027844 1.23
-0.10638063 -0.084889583 1.228
-0.10355249 -0.084336564 1.22
-0.10100174 -0.083990917 1.215
-0.098305739 -0.083507024 1.2080001
-0.095952749 -0.083299637 1.205
-0.093532383 -0.083023123 1.2010001
-0.091202147 -0.082815744 1.1980001
-0.088808022 -0.082539223 1.194
-0.086500548 -0.082331844 1.1910001
-0.084345318 -0.08226271 1.1900001
-0.082193583 -0.082193583 1.189
-0.080045357 -0.082124457 1.1880001
-0.077966258 -0.082124457 1.1880001
-0.075951025 -0.082193583 1.189
-0.073932312 -0.08226271 1.1900001
-0.071789332 -0.082193583 1.189
-0.069708481 -0.082193583 1.189
-0.067627631 -0.082193583 1.189
-0.065436527 -0.082055323 1.187
-0.063412555 -0.082124457 1.1880001
-0.06138508 -0.082193583 1.189
-0.059403993 -0.082331844 1.1910001
-0.057319637 -0.082331844 1.1910001
-0.055142529 -0.082193583 1.189
-0.053017057 -0.082124457 1.1880001
-0.050895076 -0.082055323 1.187
-0.048858855 -0.082124457 1.1880001
-0.046819128 -0.082193583 1.189
-0.044738278 -0.082193583 1.189
-0.042657427 -0.082193583 1.189
-0.040576581 -0.082193583 1.189
-0.038560484 -0.082331844 1.1910001
-0.036537383 -0.082470104 1.1930001
-0.034507286 -0.082608357 1.1950001
-0.03252444 -0.082884863 1.199
-0.030552974 -0.083230518 1.2040001
-0.028611254 -0.083714411 1.2110001
-0.026601281 -0.084060051 1.2160001
-0.024634188 -0.084613077 1.2240001
-0.022528837 -0.08475133 1.2260001
-0.020433109 -0.084958717 1.2290001
-0.018312007 -0.085096978 1.2310001
-0.11572608 -0.083279513 1.2360001
-0.11273605 -0.08267311 1.2270001
-0.11058871 -0.08267311 1.2270001
-0.10826459 -0.082538351 1.225
-0.10586084 -0.082336217 1.222
-0.10312809 -0.081864566 1.215
-0.10058609 -0.08152768 1.21
-0.098061599 -0.081190787 1.205
-0.095634237 -0.080921277 1.2010001
-0.093376614 -0.080786511 1.199
-0.091049887 -0.080584385 1.1960001
-0.088808022 -0.080449626 1.194
-0.086500548 -0.080247492 1.1910001
-0.084345318 -0.080180116 1.1900001
-0.082193583 -0.080112733 1.189
-0.080045357 -0.080045357 1.1880001
-0.078031883 -0.080112733 1.189
-0.076014914 -0.080180116 1.1900001
-0.073932312 -0.080180116 1.1900001
-0.07172896 -0.080045357 1.1880001
-0.06964986 -0.080045357 1.1880001
-0.067570761 -0.080045357 1.1880001
-0.065436527 -0.079977974 1.187
-0.063359179 -0.079977974 1.187
-0.061230201 -0.079910599 1.1860001
-0.059254356 -0.080045357 1.1880001
-0.057223383 -0.080112733 1.189
-0.055096157 -0.080045357 1.1880001
-0.052972425 -0.079977974 1.187
-0.050852202 -0.079910599 1.1860001
-0.048776601 -0.079910599 1.1860001
-0.046701003 -0.079910599 1.1860001
-0.044663023 -0.079977974 1.187
-0.042621553 -0.080045357 1.1880001
-0.040542454 -0.080045357 1.1880001
-0.038592856 -0.080314867 1.192
-0.036568012 -0.080449626 1.194
-0.034507286 -0.080517009 1.1950001
-0.032443065 -0.080584385 1.1960001
-0.030451467 -0.080853894 1.2
-0.028516747 -0.081325538 1.207
-0.026513778 -0.081662431 1.212
-0.024553683 -0.082201459 1.22
-0.022528837 -0.082605734 1.2260001
-0.020433109 -0.082807869 1.2290001
-0.018282257 -0.082807869 1.2290001
-0.11516429 -0.080722637 1.23
-0.11273605 -0.080525756 1.2270001
-0.11049858 -0.080460124 1.2260001
-0.10826459 -0.080394492 1.225
-0.10586084 -0.08019761 1.222
-0.10321297 -0.079803847 1.2160001
-0.10066923 -0.079475701 1.2110001
-0.098142974 -0.079147562 1.2060001
-0.095793493 -0.078950681 1.2030001
-0.093610257 -0.078885049 1.202
-0.09143053 -0.078819424 1.2010001
-0.089254305 -0.078753792 1.2
-0.086863682 -0.078491278 1.1960001
-0.08462882 -0.078360021 1.194
-0.082400963 -0.078228764 1.192
-0.080247492 -0.07816314 1.1910001
-0.078360021 -0.078360021 1.194
-0.07620655 -0.078294396 1.1930001
-0.073994443 -0.07816314 1.1910001
-0.07172896 -0.077966258 1.1880001
-0.069591224 -0.077900626 1.187
-0.067570761 -0.077966258 1.1880001
-0.065436527 -0.077900626 1.187
-0.063359179 -0.077900626 1.187
-0.06128183 -0.077900626 1.187
-0.059254356 -0.077966258 1.1880001
-0.057223383 -0.078031883 1.189
-0.055188909 -0.078097515 1.1900001
-0.053106308 -0.078097515 1.1900001
-0.051023707 -0.078097515 1.1900001
-0.048899978 -0.078031883 1.189
-0.046819128 -0.078031883 1.189
-0.044775907 -0.078097515 1.1900001
-0.042729184 -0.07816314 1.1910001
-0.040678959 -0.078228764 1.192
-0.038722366 -0.078491278 1.1960001
-0.036690518 -0.078622542 1.1980001
-0.034593917 -0.078622542 1.1980001
-0.032497313 -0.078622542 1.1980001
-0.030502219 -0.078885049 1.202
-0.028516747 -0.079213187 1.207
-0.026491901 -0.079475701 1.2110001
-0.024553683 -0.080066353 1.22
-0.022583963 -0.080657013 1.2290001
-0.020499611 -0.080919527 1.233
-0.018326884 -0.080853902 1.2320001
-0.1173169 -0.078570031 1.23
-0.11525793 -0.078633912 1.2310001
-0.1130117 -0.078570031 1.23
-0.11067883 -0.078442276 1.228
-0.10808783 -0.078122891 1.223
-0.10560096 -0.077867381 1.2190001
-0.10295833 -0.077484109 1.2130001
-0.10050297 -0.077228598 1.2090001
-0.098061599 -0.076973081 1.205
-0.095873125 -0.076909207 1.2040001
-0.093610257 -0.076781444 1.202
-0.0913544 -0.076653697 1.2
-0.08903116 -0.07646206 1.197
-0.086573169 -0.076142661 1.192
-0.084487066 -0.076142661 1.192
-0.082331844 -0.076078795 1.1910001
-0.080314867 -0.076142661 1.192
-0.078294396 -0.07620655 1.1930001
-0.076142661 -0.076142661 1.192
-0.073932312 -0.076014914 1.1900001
-0.071668573 -0.075823277 1.187
-0.069532603 -0.075759403 1.1860001
-0.067513876 -0.075823277 1.187
-0.065436527 -0.075823277 1.187
-0.063359179 -0.075823277 1.187
-0.061230201 -0.075759403 1.1860001
-0.059204478 -0.075823277 1.187
-0.057175256 -0.075887159 1.1880001
-0.055096157 -0.075887159 1.1880001
-0.053061679 -0.075951025 1.189
-0.050980829 -0.075951025 1.189
-0.048941109 -0.076014914 1.1900001
-0.046779756 -0.075887159 1.1880001
-0.044813536 -0.076078795 1.1910001
-0.042800937 -0.07620655 1.1930001
-0.040713087 -0.07620655 1.1930001
-0.038754743 -0.07646206 1.197
-0.036721144 -0.076589808 1.199
-0.034622792 -0.076589808 1.199
-0.032497313 -0.076525934 1.1980001
-0.030426089 -0.076589808 1.199
-0.028469495 -0.076973081 1.205
-0.026448149 -0.077228598 1.2090001
-0.024513431 -0.077803493 1.2180001
-0.022547211 -0.078378402 1.2270001
-0.020449735 -0.078570031 1.23
-0.018282257 -0.078506164 1.2290001
-0.11347109 -0.076728068 1.235
-0.11085909 -0.076417431 1.23
-0.10808783 -0.075982533 1.223
-0.10560096 -0.075734019 1.2190001
-0.10312809 -0.075485505 1.215
-0.10075235 -0.075299129 1.212
-0.098387122 -0.075112745 1.2090001
-0.096191637 -0.075050615 1.2080001
-0.093921773 -0.074926361 1.2060001
-0.091582783 -0.07473997 1.2030001
-0.089105546 -0.074429341 1.1980001
-0.086718418 -0.074180819 1.194
-0.084487066 -0.074056566 1.192
-0.082400963 -0.074056566 1.192
-0.080314867 -0.074056566 1.192
-0.078294396 -0.074118696 1.1930001
-0.07620655 -0.074118696 1.1930001
-0.073932312 -0.073932312 1.1900001
-0.071789332 -0.073870182 1.189
-0.06964986 -0.073808059 1.1880001
-0.067627631 -0.073870182 1.189
-0.065491654 -0.073808059 1.1880001
-0.063412555 -0.073808059 1.1880001
-0.061333455 -0.073808059 1.1880001
-0.059254356 -0.073808059 1.1880001
-0.057223383 -0.073870182 1.189
-0.055142529 -0.073870182 1.189
-0.053106308 -0.073932312 1.1900001
-0.051066589 -0.073994443 1.1910001
-0.049105614 -0.074180819 1.194
-0.046976641 -0.074118696 1.1930001
-0.044926412 -0.074180819 1.194
-0.042836811 -0.074180819 1.194
-0.040815469 -0.07430508 1.1960001
-0.038754743 -0.074367203 1.197
-0.036751769 -0.074553594 1.2
-0.034651671 -0.074553594 1.2
-0.032578696 -0.074615717 1.2010001
-0.030502219 -0.074677847 1.202
-0.028493125 -0.074926361 1.2060001
-0.026470024 -0.075174868 1.21
-0.024513431 -0.075671896 1.2180001
-0.022547211 -0.076231055 1.2270001
-0.020466361 -0.076479554 1.2310001
-0.11356296 -0.074627094 1.2360001
-0.11085909 -0.074264824 1.23
-0.10782269 -0.073661044 1.22
-0.10534108 -0.073419541 1.2160001
-0.10287345 -0.073178023 1.212
-0.10066923 -0.073117651 1.2110001
-0.098305739 -0.072936513 1.2080001
-0.096032381 -0.072815761 1.2060001
-0.093688145 -0.072634622 1.2030001
-0.0913544 -0.072453491 1.2
-0.088956788 -0.072211981 1.1960001
-0.086645797 -0.07203085 1.1930001
-0.084487066 -0.071970463 1.192
-0.082331844 -0.071910091 1.1910001
-0.080180116 -0.071849711 1.1900001
-0.078097515 -0.071849711 1.1900001
-0.076014914 -0.071849711 1.1900001
-0.073870182 -0.071789332 1.189
-0.07172896 -0.07172896 1.1880001
-0.06964986 -0.07172896 1.1880001
-0.067570761 -0.07172896 1.1880001
-0.065491654 -0.07172896 1.1880001
-0.063305803 -0.071608201 1.1860001
-0.061230201 -0.071608201 1.1860001
-0.059204478 -0.071668573 1.187
-0.057175256 -0.07172896 1.1880001
-0.055049777 -0.071668573 1.187
-0.053017057 -0.07172896 1.1880001
-0.050980829 -0.071789332 1.189
-0.048941109 -0.071849711 1.1900001
-0.046819128 -0.071789332 1.189
-0.044738278 -0.071789332 1.189
-0.042657427 -0.071789332 1.189
-0.040644836 -0.071910091 1.1910001
-0.038625237 -0.07203085 1.1930001
-0.036598638 -0.072151601 1.1950001
-0.034536164 -0.072211981 1.1960001
-0.03252444 -0.072393112 1.199
-0.030476844 -0.072513871 1.2010001
-0.028469495 -0.072755381 1.205
-0.026404398 -0.072876133 1.207
-0.024412801 -0.073238403 1.2130001
-0.022418579 -0.073661044 1.22
-0.020416483 -0.074144073 1.228
-0.11085909 -0.072112225 1.23
-0.10791107 -0.071584575 1.2210001
-0.10525444 -0.071232803 1.215
-0.10287345 -0.071056925 1.212
-0.10058609 -0.07093966 1.21
-0.098305739 -0.07082241 1.2080001
-0.095952749 -0.070646524 1.205
-0.093688145 -0.070529275 1.2030001
-0.0913544 -0.070353389 1.2
-0.088956788 -0.070118874 1.1960001
-0.086645797 -0.069942996 1.1930001
-0.084487066 -0.06988436 1.192
-0.082400963 -0.06988436 1.192
-0.080247492 -0.069825739 1.1910001
-0.07816314 -0.069825739 1.1910001
-0.075951025 -0.069708481 1.189
-0.073870182 -0.069708481 1.189
-0.071668573 -0.069591224 1.187
-0.069532603 -0.069532603 1.1860001
-0.067456998 -0.069532603 1.1860001
-0.065381408 -0.069532603 1.1860001
-0.063252419 -0.069473974 1.1850001
-0.061178569 -0.069473974 1.1850001
-0.059204478 -0.069591224 1.187
-0.057175256 -0.06964986 1.1880001
-0.055096157 -0.06964986 1.1880001
-0.053061679 -0.069708481 1.189
-0.050980829 -0.069708481 1.189
-0.048899978 -0.069708481 1.189
-0.046858508 -0.06976711 1.1900001
-0.044813536 -0.069825739 1.1910001
-0.042765059 -0.06988436 1.192
-0.040747214 -0.070001617 1.194
-0.038657613 -0.070001617 1.194
-0.036629267 -0.070118874 1.1960001
-0.034565039 -0.07017751 1.197
-0.032578696 -0.070412017 1.2010001
-0.030527595 -0.070529275 1.2030001
-0.028493125 -0.07070516 1.2060001
-0.026426272 -0.07082241 1.2080001
-0.024392674 -0.071056925 1.212
-0.02236345 -0.07135006 1.217
-0.020366605 -0.071819082 1.225
-0.11076896 -0.069902748 1.2290001
-0.10791107 -0.069447719 1.2210001
-0.10516782 -0.069049574 1.2140001
-0.10261882 -0.068765193 1.2090001
-0.10025358 -0.06859456 1.2060001
-0.097980224 -0.068480805 1.2040001
-0.095793493 -0.068423927 1.2030001
-0.093532383 -0.068310164 1.2010001
-0.09127827 -0.068196408 1.199
-0.088882409 -0.067968898 1.1950001
-0.086645797 -0.067855142 1.1930001
-0.08455795 -0.067855142 1.1930001
-0.082470104 -0.067855142 1.1930001
-0.080314867 -0.067798264 1.192
-0.07816314 -0.067741394 1.1910001
-0.075887159 -0.067570761 1.1880001
-0.073745921 -0.067513876 1.187
-0.071547821 -0.06740012 1.1850001
-0.069415346 -0.067343242 1.184
-0.067286365 -0.067286365 1.1830001
-0.065160885 -0.067229487 1.182
-0.063038915 -0.067172617 1.1810001
-0.060972068 -0.067172617 1.1810001
-0.058955088 -0.067229487 1.182
-0.056982744 -0.067343242 1.184
-0.054910641 -0.067343242 1.184
-0.0529278 -0.067456998 1.1860001
-0.050937958 -0.067570761 1.1880001
-0.048941109 -0.067684516 1.1900001
-0.046897888 -0.067741394 1.1910001
-0.044813536 -0.067741394 1.1910001
-0.042800937 -0.067855142 1.1930001
-0.040713087 -0.067855142 1.1930001
-0.038657613 -0.06791202 1.194
-0.036568012 -0.06791202 1.194
-0.034507286 -0.067968898 1.1950001
-0.032470189 -0.068082653 1.197
-0.030426089 -0.068196408 1.199
-0.028422246 -0.068423927 1.2030001
-0.026382521 -0.06859456 1.2060001
-0.024332298 -0.068765193 1.2090001
-0.022289949 -0.068992697 1.2130001
-0.020349981 -0.069618352 1.2240001
-0.11049858 -0.067586511 1.2260001
-0.10764594 -0.067145482 1.2180001
-0.10516782 -0.066924982 1.2140001
-0.1027037 -0.066704459 1.21
-0.10033671 -0.066539079 1.207
-0.097980224 -0.066373698 1.2040001
-0.095793493 -0.066318572 1.2030001
-0.093532383 -0.066208318 1.2010001
-0.0913544 -0.066153191 1.2
-0.088956788 -0.065932676 1.1960001
-0.086718418 -0.065822415 1.194
-0.08455795 -0.065767296 1.1930001
-0.082539223 -0.065822415 1.194
-0.08038225 -0.065767296 1.1930001
-0.07816314 -0.065657042 1.1910001
-0.075951025 -0.065546781 1.189
-0.073808059 -0.065491654 1.1880001
-0.07172896 -0.065491654 1.1880001
-0.069591224 -0.065436527 1.187
-0.06740012 -0.065326273 1.1850001
-0.06521602 -0.06521602 1.1830001
-0.063092291 -0.065160885 1.182
-0.061075319 -0.06521602 1.1830001
-0.058955088 -0.065160885 1.182
-0.056934617 -0.06521602 1.1830001
-0.054864269 -0.06521602 1.1830001
-0.0529278 -0.065381408 1.1860001
-0.050937958 -0.065491654 1.1880001
-0.048982237 -0.065657042 1.1910001
-0.046976641 -0.065767296 1.1930001
-0.044926412 -0.065822415 1.194
-0.04287269 -0.065877549 1.1950001
-0.040781341 -0.065877549 1.1950001
-0.038722366 -0.065932676 1.1960001
-0.036629267 -0.065932676 1.1960001
-0.034565039 -0.065987803 1.197
-0.032497313 -0.066042937 1.1980001
-0.030426089 -0.066098057 1.199
-0.028422246 -0.066318572 1.2030001
-0.026360646 -0.066428825 1.205
-0.024332298 -0.06664934 1.2090001
-0.0223267 -0.066980101 1.215
-0.11040844 -0.065387517 1.225
-0.10746918 -0.064907126 1.2160001
-0.10490793 -0.064640239 1.2110001
-0.10244906 -0.064426728 1.207
-0.10017045 -0.064319976 1.205
-0.097736083 -0.064106472 1.2010001
-0.095554605 -0.064053088 1.2
-0.093454503 -0.064053088 1.2
-0.0913544 -0.064053088 1.2
-0.089105546 -0.063946329 1.1980001
-0.086791053 -0.063786201 1.1950001
-0.08462882 -0.063732818 1.194
-0.082470104 -0.063679442 1.1930001
-0.080247492 -0.06357269 1.1910001
-0.078031883 -0.063465931 1.189
-0.075887159 -0.063412555 1.1880001
-0.073808059 -0.063412555 1.1880001
-0.07172896 -0.063412555 1.1880001
-0.069591224 -0.063359179 1.187
-0.067343242 -0.063199043 1.184
-0.065160885 -0.063092291 1.182
-0.062932156 -0.062932156 1.179
-0.060920436 -0.062985532 1.1800001
-0.058805458 -0.062932156 1.179
-0.056790233 -0.062985532 1.1800001
-0.054725137 -0.062985532 1.1800001
-0.052838545 -0.063199043 1.184
-0.050852202 -0.063305803 1.1860001
-0.048941109 -0.063519314 1.1900001
-0.046897888 -0.06357269 1.1910001
-0.044851158 -0.063626066 1.192
-0.042800937 -0.063679442 1.1930001
-0.040713087 -0.063679442 1.1930001
-0.038657613 -0.063732818 1.194
-0.036568012 -0.063732818 1.194
-0.034507286 -0.063786201 1.1950001
-0.032443065 -0.063839577 1.1960001
-0.030400714 -0.063946329 1.1980001
-0.028351367 -0.064053088 1.2
-0.026295016 -0.064159833 1.202
-0.024292044 -0.064426728 1.207
-0.0223267 -0.06485375 1.215
-0.11067883 -0.063398555 1.228
-0.10746918 -0.062779024 1.2160001
-0.10508119 -0.062624142 1.2130001
-0.10261882 -0.062417638 1.2090001
-0.10025358 -0.062262751 1.2060001
-0.097817458 -0.062056236 1.202
-0.095554605 -0.061952986 1.2
-0.093454503 -0.061952986 1.2
-0.091202147 -0.061849732 1.1980001
-0.08903116 -0.061798099 1.197
-0.086718418 -0.061643217 1.194
-0.08462882 -0.061643217 1.194
-0.082470104 -0.061591592 1.1930001
-0.080247492 -0.061488338 1.1910001
-0.078097515 -0.061436713 1.1900001
-0.075951025 -0.06138508 1.189
-0.073870182 -0.06138508 1.189
-0.07172896 -0.061333455 1.1880001
-0.069708481 -0.06138508 1.189
-0.067513876 -0.06128183 1.187
-0.06521602 -0.061075319 1.1830001
-0.062985532 -0.060920436 1.1800001
-0.060920436 -0.060920436 1.1800001
-0.058905218 -0.060972068 1.1810001
-0.05688649 -0.061023686 1.182
-0.054864269 -0.061075319 1.1830001
-0.052883171 -0.061178569 1.1850001
-0.050852202 -0.061230201 1.1860001
-0.048817724 -0.06128183 1.187
-0.046779756 -0.061333455 1.1880001
-0.044813536 -0.061488338 1.1910001
-0.042765059 -0.061539963 1.192
-0.040713087 -0.061591592 1.1930001
-0.038625237 -0.061591592 1.1930001
-0.036598638 -0.061694849 1.1950001
-0.034536164 -0.061746474 1.1960001
-0.032497313 -0.061849732 1.1980001
-0.030400714 -0.061849732 1.1980001
-0.028351367 -0.061952986 1.2
-0.026295016 -0.062056236 1.202
-0.02427192 -0.062262751 1.2060001
-0.022308325 -0.062675774 1.2140001
-0.10782269 -0.06085043 1.22
-0.10516782 -0.06055117 1.2140001
-0.1027037 -0.060351655 1.21
-0.10025358 -0.060152147 1.2060001
-0.097817458 -0.059952635 1.202
-0.095554605 -0.059852883 1.2
-0.093454503 -0.059852883 1.2
-0.091202147 -0.059753127 1.1980001
-0.088956788 -0.059653375 1.1960001
-0.086791053 -0.059603497 1.1950001
-0.084699705 -0.059603497 1.1950001
-0.082539223 -0.059553616 1.194
-0.080314867 -0.05945386 1.192
-0.078097515 -0.059354108 1.1900001
-0.075951025 -0.05930423 1.189
-0.073870182 -0.05930423 1.189
-0.071789332 -0.05930423 1.189
-0.06976711 -0.059354108 1.1900001
-0.067343242 -0.05905484 1.184
-0.065050632 -0.058855332 1.1800001
-0.062772021 -0.058655821 1.176
-0.060713924 -0.058655821 1.176
-0.058705702 -0.058705702 1.177
-0.056838367 -0.058905218 1.1810001
-0.054864269 -0.05900497 1.1830001
-0.052883171 -0.059104726 1.1850001
-0.050809324 -0.059104726 1.1850001
-0.048776601 -0.0591546 1.1860001
-0.046740375 -0.059204478 1.187
-0.044775907 -0.059354108 1.1900001
-0.042729184 -0.059403993 1.1910001
-0.040713087 -0.059503745 1.1930001
-0.038592856 -0.05945386 1.192
-0.036629267 -0.059653375 1.1960001
-0.034565039 -0.059703253 1.197
-0.03252444 -0.059803005 1.199
-0.030426089 -0.059803005 1.199
-0.028374992 -0.059902765 1.2010001
-0.026316892 -0.060002517 1.2030001
-0.02427192 -0.060152147 1.2060001
-0.022289949 -0.060501292 1.2130001
-0.10791107 -0.058763459 1.2210001
-0.10525444 -0.058474693 1.215
-0.10278858 -0.058282182 1.2110001
-0.10041984 -0.058137801 1.2080001
-0.097980224 -0.057945296 1.2040001
-0.095634237 -0.057800915 1.2010001
-0.093376614 -0.057704654 1.199
-0.090973757 -0.057512149 1.1950001
-0.088733651 -0.057415891 1.1930001
-0.086573169 -0.057367764 1.192
-0.08455795 -0.057415891 1.1930001
-0.082400963 -0.057367764 1.192
-0.080180116 -0.05727151 1.1900001
-0.078031883 -0.057223383 1.189
-0.075823277 -0.057127129 1.187
-0.073808059 -0.057175256 1.1880001
-0.071789332 -0.057223383 1.189
-0.069708481 -0.057223383 1.189
-0.067172617 -0.056838367 1.1810001
-0.06477499 -0.056549601 1.1750001
-0.062505133 -0.056357086 1.171
-0.06045578 -0.056357086 1.171
-0.058456313 -0.056405213 1.1720001
-0.056597725 -0.056597725 1.176
-0.054771516 -0.056838367 1.1810001
-0.052883171 -0.057030872 1.1850001
-0.050809324 -0.057030872 1.1850001
-0.048694346 -0.056982744 1.184
-0.046622243 -0.056982744 1.184
-0.044663023 -0.057127129 1.187
-0.042621553 -0.057175256 1.1880001
-0.040644836 -0.057319637 1.1910001
-0.038592856 -0.057367764 1.192
-0.036629267 -0.057560276 1.1960001
-0.034536164 -0.057560276 1.1960001
-0.032497313 -0.05765653 1.1980001
-0.030426089 -0.057704654 1.199
-0.028398618 -0.057849035 1.202
-0.026316892 -0.057897162 1.2030001
-0.02427192 -0.058041546 1.2060001
-0.022308325 -0.058426566 1.2140001
-0.10817622 -0.056765731 1.2240001
-0.10525444 -0.056348339 1.215
-0.10278858 -0.056162834 1.2110001
-0.10041984 -0.056023698 1.2080001
-0.097980224 -0.055838194 1.2040001
-0.095793493 -0.055791814 1.2030001
-0.093454503 -0.055652682 1.2
-0.09112601 -0.05551355 1.197
-0.088808022 -0.055374417 1.194
-0.086645797 -0.055328041 1.1930001
-0.084416196 -0.055235289 1.1910001
-0.08226271 -0.055188909 1.1900001
-0.080045357 -0.055096157 1.1880001
-0.077900626 -0.055049777 1.187
-0.075823277 -0.055049777 1.187
-0.073870182 -0.055142529 1.189
-0.07172896 -0.055096157 1.1880001
-0.069356717 -0.054864269 1.1830001
-0.06683135 -0.054493252 1.1750001
-0.064499363 -0.054261364 1.1700001
-0.062291626 -0.054122232 1.1670001
-0.060300905 -0.054168612 1.1680001
-0.058306683 -0.054214984 1.169
-0.056453347 -0.0544005 1.1730001
-0.054586004 -0.054586004 1.177
-0.052749291 -0.054817893 1.182
-0.050766442 -0.054910641 1.184
-0.048735473 -0.054957025 1.1850001
-0.046622243 -0.054910641 1.184
-0.044587772 -0.054957025 1.1850001
-0.042585675 -0.055049777 1.187
-0.040610708 -0.055188909 1.1900001
-0.038592856 -0.055281661 1.192
-0.036598638 -0.055420794 1.1950001
-0.034536164 -0.055467173 1.1960001
-0.03252444 -0.055606302 1.199
-0.030502219 -0.055745434 1.202
-0.028445872 -0.055838194 1.2040001
-0.026382521 -0.055930946 1.2060001
-0.024352424 -0.056116454 1.21
-0.10808783 -0.054579001 1.223
-0.10525444 -0.054221984 1.215
-0.1027037 -0.05399885 1.21
-0.10025358 -0.053820346 1.2060001
-0.097817458 -0.053641833 1.202
-0.095474973 -0.05350795 1.199
-0.093220867 -0.053418696 1.197
-0.090973757 -0.053329445 1.1950001
-0.088659264 -0.053195558 1.192
-0.086355284 -0.053061679 1.189
-0.084132679 -0.052972425 1.187
-0.08191707 -0.052883171 1.1850001
-0.07977584 -0.052838545 1.184
-0.077703744 -0.052838545 1.184
-0.075695522 -0.052883171 1.1850001
-0.073683806 -0.0529278 1.1860001
-0.071487442 -0.052838545 1.184
-0.069122203 -0.052615408 1.179
-0.066717587 -0.052347649 1.1730001
-0.064444229 -0.052169137 1.169
-0.06218487 -0.051990632 1.1650001
-0.060197648 -0.052035253 1.166
-0.058206931 -0.052079882 1.1670001
-0.056357086 -0.052258391 1.171
-0.054354116 -0.05230302 1.1720001
-0.052481528 -0.052481528 1.176
-0.050637819 -0.052704666 1.1810001
-0.048653223 -0.05279392 1.1830001
-0.04658287 -0.05279392 1.1830001
-0.044512521 -0.05279392 1.1830001
-0.042478044 -0.052838545 1.184
-0.040508326 -0.052972425 1.187
-0.038528107 -0.053106308 1.1900001
-0.036506757 -0.053195558 1.192
-0.034478411 -0.053284816 1.194
-0.032443065 -0.053374074 1.1960001
-0.030451467 -0.053552579 1.2
-0.028398618 -0.053641833 1.202
-0.026360646 -0.053775713 1.205
-0.024332298 -0.053954225 1.2090001
-0.10551433 -0.052224267 1.2180001
-0.10287345 -0.051967002 1.212
-0.10041984 -0.051795494 1.2080001
-0.098061599 -0.051666863 1.205
-0.095713861 -0.051538233 1.202
-0.093532383 -0.051495355 1.2010001
-0.09127827 -0.051409598 1.199
-0.088808022 -0.051195215 1.194
-0.086355284 -0.050980829 1.189
-0.083990924 -0.050809324 1.1850001
-0.081847943 -0.050766442 1.184
-0.07977584 -0.050766442 1.184
-0.077703744 -0.050766442 1.184
-0.075759403 -0.050852202 1.1860001
-0.073683806 -0.050852202 1.1860001
-0.07142707 -0.050723568 1.1830001
-0.06923946 -0.050637819 1.1810001
-0.066945098 -0.050466307 1.177
-0.064719863 -0.050337672 1.174
-0.062451757 -0.050166167 1.1700001
-0.06045578 -0.050209042 1.171
-0.058506198 -0.050294802 1.1730001
-0.056645852 -0.050466307 1.177
-0.054539625 -0.050423428 1.176
-0.052615408 -0.050552059 1.179
-0.050723568 -0.050723568 1.1830001
-0.048776601 -0.050852202 1.1860001
-0.046740375 -0.050895076 1.187
-0.044625401 -0.050852202 1.1860001
-0.042585675 -0.050895076 1.187
-0.040542454 -0.050937958 1.1880001
-0.038560484 -0.051066589 1.1910001
-0.036537383 -0.051152341 1.1930001
-0.034536164 -0.051280972 1.1960001
-0.032497313 -0.051366724 1.1980001
-0.030502219 -0.051538233 1.202
-0.028445872 -0.051623989 1.2040001
-0.026426272 -0.051795494 1.2080001
-0.024412801 -0.052009881 1.2130001
-0.10568759 -0.050174914 1.22
-0.10287345 -0.0498459 1.212
-0.10041984 -0.049681395 1.2080001
-0.098061599 -0.049558014 1.205
-0.095634237 -0.049393509 1.2010001
-0.093376614 -0.04931125 1.199
-0.091049887 -0.049187873 1.1960001
-0.088659264 -0.04902336 1.192
-0.086282656 -0.048858855 1.1880001
-0.083920039 -0.048694346 1.184
-0.08170969 -0.048612092 1.182
-0.079641081 -0.048612092 1.182
-0.077506863 -0.048570964 1.1810001
-0.075503886 -0.048612092 1.182
-0.073311031 -0.048529837 1.1800001
-0.071185552 -0.04848871 1.179
-0.069063574 -0.048447587 1.1780001
-0.066945098 -0.048406456 1.177
-0.064830117 -0.048365328 1.176
-0.062611893 -0.048241951 1.1730001
-0.060610667 -0.048283074 1.174
-0.058556069 -0.048283074 1.174
-0.056645852 -0.048406456 1.177
-0.054539625 -0.048365328 1.176
-0.052570783 -0.048447587 1.1780001
-0.050637819 -0.048570964 1.1810001
-0.048694346 -0.048694346 1.184
-0.046622243 -0.048694346 1.184
-0.044512521 -0.048653223 1.1830001
-0.042442169 -0.048653223 1.1830001
-0.040405948 -0.048694346 1.184
-0.03846335 -0.048858855 1.1880001
-0.036506757 -0.04902336 1.192
-0.034507286 -0.049146742 1.1950001
-0.032443065 -0.049187873 1.1960001
-0.030426089 -0.04931125 1.199
-0.028374992 -0.049393509 1.2010001
-0.026360646 -0.049558014 1.205
-0.024392674 -0.0498459 1.212
-0.10594748 -0.048157945 1.223
-0.10321297 -0.047882307 1.2160001
-0.10075235 -0.047724798 1.212
-0.098305739 -0.047567293 1.2080001
-0.095873125 -0.047409784 1.2040001
-0.093532383 -0.047291655 1.2010001
-0.091202147 -0.047173522 1.1980001
-0.088808022 -0.047016013 1.194
-0.086427912 -0.046858508 1.1900001
-0.084132679 -0.046740375 1.187
-0.08191707 -0.046661623 1.1850001
-0.079843223 -0.046661623 1.1850001
-0.077703744 -0.046622243 1.184
-0.075631641 -0.046622243 1.184
-0.073373161 -0.046504118 1.1810001
-0.071245931 -0.046464738 1.1800001
-0.069180831 -0.046464738 1.1800001
-0.067058854 -0.046425361 1.179
-0.064940378 -0.046385989 1.1780001
-0.062772021 -0.046307229 1.176
-0.06076555 -0.046346609 1.177
-0.05875558 -0.046385989 1.1780001
-0.056790233 -0.046464738 1.1800001
-0.054725137 -0.046464738 1.1800001
-0.052704666 -0.046504118 1.1810001
-0.050723568 -0.04658287 1.1830001
-0.048694346 -0.046622243 1.184
-0.046661623 -0.046661623 1.1850001
-0.044550147 -0.046622243 1.184
-0.042513922 -0.046661623 1.1850001
-0.040440075 -0.046661623 1.1850001
-0.038495727 -0.046819128 1.189
-0.036537383 -0.046976641 1.1930001
-0.034536164 -0.04709477 1.1960001
-0.03252444 -0.047212899 1.199
-0.030476844 -0.047291655 1.2010001
-0.028445872 -0.047409784 1.2040001
-0.026470024 -0.047646042 1.21
-0.024513431 -0.04796106 1.2180001
-0.10586084 -0.045979965 1.222
-0.10321297 -0.045754205 1.2160001
-0.10075235 -0.045603696 1.212
-0.098224349 -0.045415562 1.207
-0.095793493 -0.045265056 1.2030001
-0.093376614 -0.045114547 1.199
-0.091049887 -0.045001671 1.1960001
-0.088808022 -0.044926412 1.194
-0.086573169 -0.044851158 1.192
-0.084274426 -0.044738278 1.189
-0.081986204 -0.044625401 1.1860001
-0.079843223 -0.044587772 1.1850001
-0.077638119 -0.044512521 1.1830001
-0.075440012 -0.044437267 1.1810001
-0.073186778 -0.044324387 1.1780001
-0.0710648 -0.044286758 1.177
-0.068946317 -0.044249129 1.176
-0.06683135 -0.044211503 1.1750001
-0.064719863 -0.044173878 1.174
-0.062558517 -0.044098627 1.1720001
-0.060507413 -0.044098627 1.1720001
-0.058456313 -0.044098627 1.1720001
-0.056501471 -0.044173878 1.174
-0.054539625 -0.044249129 1.176
-0.052570783 -0.044324387 1.1780001
-0.050552059 -0.044362012 1.179
-0.04848871 -0.044362012 1.179
-0.046504118 -0.044437267 1.1810001
-0.044437267 -0.044437267 1.1810001
-0.042406291 -0.044474892 1.182
-0.040405948 -0.044550147 1.184
-0.03846335 -0.044700652 1.1880001
-0.036506757 -0.044851158 1.192
-0.034507286 -0.044964042 1.1950001
-0.032470189 -0.045039292 1.197
-0.030426089 -0.045114547 1.199
-0.028398618 -0.045227427 1.202
-0.026426272 -0.045453191 1.2080001
-0.024473179 -0.045754205 1.2160001
-0.10586084 -0.043841362 1.222
-0.10338273 -0.043697856 1.2180001
-0.10091861 -0.043554351 1.2140001
-0.098468497 -0.043410841 1.21
-0.095952749 -0.043231457 1.205
-0.093610257 -0.043123826 1.202
-0.09127827 -0.043016195 1.199
-0.08903116 -0.042944442 1.197
-0.086718418 -0.042836811 1.194
-0.084487066 -0.042765059 1.192
-0.08226271 -0.042693306 1.1900001
-0.080045357 -0.042621553 1.1880001
-0.077835001 -0.0425498 1.1860001
-0.075503886 -0.042406291 1.182
-0.073311031 -0.042334538 1.1800001
-0.07112518 -0.042262789 1.1780001
-0.069004945 -0.042226911 1.177
-0.06683135 -0.042155158 1.1750001
-0.064719863 -0.04211928 1.174
-0.062665261 -0.04211928 1.174
-0.060610667 -0.04211928 1.174
-0.058556069 -0.04211928 1.174
-0.056501471 -0.04211928 1.174
-0.054539625 -0.042191029 1.176
-0.052570783 -0.042262789 1.1780001
-0.050552059 -0.04229866 1.179
-0.048529837 -0.042334538 1.1800001
-0.04658287 -0.042442169 1.1830001
-0.044550147 -0.042478044 1.184
-0.042513922 -0.042513922 1.1850001
-0.040542454 -0.042621553 1.1880001
-0.038592856 -0.042765059 1.192
-0.036598638 -0.04287269 1.1950001
-0.034593917 -0.042980321 1.1980001
-0.032551568 -0.043052074 1.2
-0.030527595 -0.043159705 1.2030001
-0.028516747 -0.04330321 1.207
-0.026491901 -0.04344672 1.2110001
-0.024513431 -0.043697856 1.2180001
-0.10603411 -0.041771013 1.2240001
-0.10338273 -0.041566253 1.2180001
-0.10075235 -0.041361492 1.212
-0.098305739 -0.041224986 1.2080001
-0.095873125 -0.041088481 1.2040001
-0.093532383 -0.040986102 1.2010001
-0.091202147 -0.04088372 1.1980001
-0.088956788 -0.040815469 1.1960001
-0.086645797 -0.040713087 1.1930001
-0.084345318 -0.040610708 1.1900001
-0.082055323 -0.040508326 1.187
-0.079910599 -0.040474202 1.1860001
-0.077638119 -0.04037182 1.1830001
-0.075312249 -0.040235311 1.179
-0.073000394 -0.040098809 1.1750001
-0.070823289 -0.040030558 1.1730001
-0.068770438 -0.040030558 1.1730001
-0.06666071 -0.039996427 1.1720001
-0.064609617 -0.039996427 1.1720001
-0.062558517 -0.039996427 1.1720001
-0.06045578 -0.039962295 1.171
-0.058406439 -0.039962295 1.171
-0.056308966 -0.039928176 1.1700001
-0.0544005 -0.040030558 1.1730001
-0.052481528 -0.040132929 1.176
-0.050466307 -0.04016706 1.177
-0.048447587 -0.040201191 1.1780001
-0.046425361 -0.040235311 1.179
-0.044437267 -0.040303569 1.1810001
-0.042442169 -0.04037182 1.1830001
-0.040508326 -0.040508326 1.187
-0.038592856 -0.040678959 1.192
-0.036598638 -0.040781341 1.1950001
-0.034565039 -0.040849593 1.197
-0.03252444 -0.040917847 1.199
-0.030476844 -0.040986102 1.2010001
-0.028445872 -0.041088481 1.2040001
-0.026426272 -0.041224986 1.2080001
-0.024473179 -0.041498002 1.2160001
-0.10620737 -0.039693665 1.2260001
-0.10338273 -0.039434649 1.2180001
-0.10083549 -0.039272767 1.2130001
-0.098305739 -0.039110884 1.2080001
-0.095952749 -0.039013755 1.205
-0.093688145 -0.038949002 1.2030001
-0.0913544 -0.038851872 1.2
-0.089105546 -0.038787119 1.1980001
-0.086718418 -0.038657613 1.194
-0.084345318 -0.038528107 1.1900001
-0.082193583 -0.038495727 1.189
-0.079977974 -0.038430978 1.187
-0.077769376 -0.038366221 1.1850001
-0.075376131 -0.038204342 1.1800001
-0.073124647 -0.038107213 1.177
-0.070883662 -0.038010079 1.174
-0.068829067 -0.038010079 1.174
-0.066717587 -0.037977707 1.1730001
-0.064664744 -0.037977707 1.1730001
-0.062611893 -0.037977707 1.1730001
-0.060507413 -0.037945326 1.1720001
-0.058456313 -0.037945326 1.1720001
-0.056357086 -0.03791295 1.171
-0.0544005 -0.037977707 1.1730001
-0.052481528 -0.038074832 1.176
-0.050509185 -0.038139589 1.1780001
-0.048529837 -0.038204342 1.1800001
-0.046504118 -0.038236719 1.1810001
-0.044474892 -0.038269091 1.182
-0.042513922 -0.038366221 1.1850001
-0.040576581 -0.038495727 1.189
-0.038657613 -0.038657613 1.194
-0.036690518 -0.038787119 1.1980001
-0.034651671 -0.038851872 1.2
-0.032632947 -0.038949002 1.2030001
-0.030552974 -0.038981378 1.2040001
-0.028540375 -0.039110884 1.2080001
-0.026491901 -0.039208014 1.2110001
-0.10586084 -0.037425552 1.222
-0.10312809 -0.037211169 1.215
-0.10050297 -0.037027407 1.2090001
-0.098142974 -0.036935531 1.2060001
-0.095793493 -0.03684365 1.2030001
-0.093532383 -0.036782399 1.2010001
-0.091202147 -0.036690518 1.1980001
-0.088956788 -0.036629267 1.1960001
-0.086573169 -0.036506757 1.192
-0.084203556 -0.036384251 1.1880001
-0.08191707 -0.036292374 1.1850001
-0.079843223 -0.036292374 1.1850001
-0.077638119 -0.036231119 1.1830001
-0.075312249 -0.036108613 1.179
-0.073062517 -0.036016732 1.176
-0.070883662 -0.035955481 1.174
-0.068770438 -0.035924856 1.1730001
-0.06666071 -0.035894226 1.1720001
-0.064554483 -0.035863601 1.171
-0.062451757 -0.035832979 1.1700001
-0.060404163 -0.035832979 1.1700001
-0.058306683 -0.035802349 1.169
-0.056260832 -0.035802349 1.169
-0.054261364 -0.035832979 1.1700001
-0.052347649 -0.035924856 1.1730001
-0.050466307 -0.036047358 1.177
-0.04848871 -0.036108613 1.179
-0.046425361 -0.036108613 1.179
-0.044437267 -0.036169868 1.1810001
-0.042442169 -0.036231119 1.1830001
-0.040508326 -0.036353625 1.187
-0.038560484 -0.036476135 1.1910001
-0.036568012 -0.036568012 1.194
-0.034593917 -0.036690518 1.1980001
-0.032578696 -0.036782399 1.2010001
-0.030527595 -0.03684365 1.2030001
-0.028469495 -0.036904905 1.205
-0.026470024 -0.037058037 1.21
-0.10594748 -0.035315827 1.223
-0.10321297 -0.035113692 1.2160001
-0.10066923 -0.034969307 1.2110001
-0.098387122 -0.034911558 1.2090001
-0.095952749 -0.034796052 1.205
-0.093610257 -0.03470942 1.202
-0.0913544 -0.034651671 1.2
-0.089105546 -0.034593917 1.1980001
-0.086791053 -0.034507286 1.1950001
-0.084416196 -0.034391783 1.1910001
-0.082124457 -0.034305152 1.1880001
-0.079910599 -0.034247402 1.1860001
-0.077835001 -0.034247402 1.1860001
-0.075631641 -0.034189645 1.184
-0.073435292 -0.034131892 1.182
-0.071245931 -0.034074143 1.1800001
-0.069122203 -0.034045264 1.179
-0.066888221 -0.033958632 1.176
-0.064719863 -0.033900883 1.174
-0.062611893 -0.033872008 1.1730001
-0.060610667 -0.033900883 1.174
-0.058506198 -0.033872008 1.1730001
-0.056405213 -0.03384313 1.1720001
-0.0544005 -0.033872008 1.1730001
-0.052436899 -0.033929758 1.1750001
-0.050594937 -0.034074143 1.1800001
-0.048612092 -0.034131892 1.182
-0.04658287 -0.03416077 1.1830001
-0.044550147 -0.034189645 1.184
-0.042513922 -0.034218524 1.1850001
-0.040542454 -0.034305152 1.1880001
-0.038592856 -0.034420658 1.192
-0.036629267 -0.034536164 1.1960001
-0.034680545 -0.034680545 1.2010001
-0.032660075 -0.034767177 1.2040001
-0.030654477 -0.03488268 1.2080001
-0.028611254 -0.034969307 1.2110001
-0.026579404 -0.035084814 1.215
-0.10612074 -0.033229727 1.225
-0.10321297 -0.03298559 1.2160001
-0.10075235 -0.03287708 1.212
-0.098468497 -0.032822832 1.21
-0.095952749 -0.032687198 1.205
-0.093532383 -0.032578696 1.2010001
-0.091202147 -0.032497313 1.1980001
-0.088956788 -0.032443065 1.1960001
-0.086645797 -0.032361683 1.1930001
-0.084274426 -0.03225318 1.189
-0.081986204 -0.032171801 1.1860001
-0.07977584 -0.032117549 1.184
-0.077703744 -0.032117549 1.184
-0.075567767 -0.032090422 1.1830001
-0.073435292 -0.032063294 1.182
-0.071306311 -0.03203617 1.1810001
-0.069180831 -0.032009043 1.1800001
-0.066945098 -0.03192766 1.177
-0.06477499 -0.031873412 1.1750001
-0.062665261 -0.031846285 1.174
-0.060662299 -0.031873412 1.1750001
-0.058655821 -0.031900536 1.176
-0.056597725 -0.031900536 1.176
-0.054539625 -0.031900536 1.176
-0.052570783 -0.031954788 1.1780001
-0.050723568 -0.032090422 1.1830001
-0.048694346 -0.032117549 1.184
-0.04658287 -0.032090422 1.1830001
-0.044512521 -0.032090422 1.1830001
-0.042513922 -0.032144673 1.1850001
-0.040508326 -0.032198925 1.187
-0.038528107 -0.032280307 1.1900001
-0.036598638 -0.032415938 1.1950001
-0.034651671 -0.032551568 1.2
-0.032632947 -0.032632947 1.2030001
-0.0306291 -0.03274145 1.207
-0.028564001 -0.032795705 1.2090001
-0.026557529 -0.032931339 1.2140001
-0.10372224 -0.031009743 1.222
-0.10116799 -0.030882861 1.217
-0.098712631 -0.030781358 1.2130001
-0.096271269 -0.030679855 1.2090001
-0.093766026 -0.030552974 1.2040001
-0.09143053 -0.030476844 1.2010001
-0.089179918 -0.030426089 1.199
-0.086863682 -0.030349962 1.1960001
-0.084487066 -0.030248456 1.192
-0.082193583 -0.030172326 1.189
-0.080045357 -0.030146955 1.1880001
-0.077835001 -0.030096203 1.1860001
-0.075695522 -0.030070825 1.1850001
-0.073559545 -0.030045444 1.184
-0.07142707 -0.030020073 1.1830001
-0.069356717 -0.030020073 1.1830001
-0.067115732 -0.029943943 1.1800001
-0.064940378 -0.029893192 1.1780001
-0.062772021 -0.029842436 1.176
-0.06076555 -0.029867815 1.177
-0.05875558 -0.029893192 1.1780001
-0.056742106 -0.029918566 1.179
-0.054771516 -0.029969322 1.1810001
-0.052838545 -0.030045444 1.184
-0.050895076 -0.030121574 1.187
-0.048776601 -0.030096203 1.1860001
-0.046661623 -0.030070825 1.1850001
-0.044625401 -0.030096203 1.1860001
-0.042657427 -0.030172326 1.189
-0.040678959 -0.030248456 1.192
-0.038657613 -0.030299207 1.194
-0.036659889 -0.030375337 1.197
-0.03470942 -0.030502219 1.202
-0.032714326 -0.030603725 1.2060001
-0.030679855 -0.030679855 1.2090001
-0.028634878 -0.03075598 1.212
-0.026623156 -0.030882861 1.217
-0.10363737 -0.028847516 1.2210001
-0.10116799 -0.028753011 1.217
-0.098794013 -0.028682133 1.2140001
-0.096191637 -0.028540375 1.2080001
-0.093688145 -0.028422246 1.2030001
-0.0913544 -0.028351367 1.2
-0.089105546 -0.028304113 1.1980001
-0.086791053 -0.028233236 1.1950001
-0.084487066 -0.028162356 1.192
-0.082193583 -0.028091477 1.189
-0.079977974 -0.028044224 1.187
-0.077638119 -0.027949722 1.1830001
-0.075440012 -0.027902471 1.1810001
-0.0732489 -0.027855216 1.179
-0.07112518 -0.027831592 1.1780001
-0.069004945 -0.027807964 1.177
-0.066774465 -0.027737085 1.174
-0.064664744 -0.027713461 1.1730001
-0.062611893 -0.027713461 1.1730001
-0.060559046 -0.027713461 1.1730001
-0.058556069 -0.027737085 1.174
-0.056597725 -0.027784338 1.176
-0.054678757 -0.027855216 1.179
-0.052749291 -0.027926095 1.182
-0.050723568 -0.027949722 1.1830001
-0.048653223 -0.027949722 1.1830001
-0.046504118 -0.027902471 1.1810001
-0.044512521 -0.027949722 1.1830001
-0.0425498 -0.028020602 1.1860001
-0.040610708 -0.028115105 1.1900001
-0.038625237 -0.028185984 1.1930001
-0.036629267 -0.028256863 1.1960001
-0.034651671 -0.028351367 1.2
-0.032660075 -0.028445872 1.2040001
-0.0306291 -0.028516747 1.207
-0.028611254 -0.028611254 1.2110001
-0.026645033 -0.028776636 1.2180001
-0.10158364 -0.026732536 1.222
-0.098956764 -0.026601281 1.2160001
-0.096430518 -0.026491901 1.2110001
-0.093921773 -0.026382521 1.2060001
-0.09165892 -0.026338769 1.2040001
-0.089328676 -0.026273141 1.2010001
-0.087008946 -0.026207514 1.1980001
-0.08462882 -0.026120007 1.194
-0.082331844 -0.026054382 1.1910001
-0.079977974 -0.025966875 1.187
-0.077572487 -0.025857495 1.182
-0.075440012 -0.025835622 1.1810001
-0.073373161 -0.025835622 1.1810001
-0.071245931 -0.025813743 1.1800001
-0.069063574 -0.025769992 1.1780001
-0.06683135 -0.025704363 1.1750001
-0.06477499 -0.025704363 1.1750001
-0.062718645 -0.025704363 1.1750001
-0.060662299 -0.025704363 1.1750001
-0.05860595 -0.025704363 1.1750001
-0.056549601 -0.025704363 1.1750001
-0.054586004 -0.025748115 1.177
-0.052704666 -0.025835622 1.1810001
-0.050723568 -0.025879372 1.1830001
-0.048612092 -0.025857495 1.182
-0.04658287 -0.025879372 1.1830001
-0.044587772 -0.025923124 1.1850001
-0.042657427 -0.026010627 1.189
-0.040713087 -0.026098134 1.1930001
-0.038722366 -0.026163761 1.1960001
-0.036721144 -0.026229387 1.199
-0.03470942 -0.026295016 1.202
-0.03274145 -0.026404398 1.207
-0.030730607 -0.026491901 1.2110001
-0.028753011 -0.026623156 1.217
-0.10166677 -0.02461406 1.223
-0.098956764 -0.024473179 1.2160001
-0.096350886 -0.024352424 1.21
-0.093843892 -0.024251793 1.205
-0.091582783 -0.024211543 1.2030001
-0.089179918 -0.024131035 1.199
-0.08693631 -0.024090784 1.197
-0.08455795 -0.024010282 1.1930001
-0.082193583 -0.023929777 1.189
-0.07977584 -0.023829147 1.184
-0.07744123 -0.023748644 1.1800001
-0.075248376 -0.023708392 1.1780001
-0.073186778 -0.023708392 1.1780001
-0.07112518 -0.023708392 1.1780001
-0.069004945 -0.023688266 1.177
-0.06683135 -0.023648014 1.1750001
-0.064719863 -0.023627888 1.174
-0.062665261 -0.023627888 1.174
-0.060662299 -0.023648014 1.1750001
-0.058705702 -0.023688266 1.177
-0.056597725 -0.02366814 1.176
-0.054539625 -0.02366814 1.176
-0.052526154 -0.023688266 1.177
-0.050552059 -0.023728518 1.179
-0.04848871 -0.023728518 1.179
-0.046464738 -0.023748644 1.1800001
-0.044512521 -0.023809021 1.1830001
-0.042585675 -0.023889525 1.187
-0.040610708 -0.023949903 1.1900001
-0.038689986 -0.024050534 1.1950001
-0.036721144 -0.024131035 1.199
-0.034738299 -0.024211543 1.2030001
-0.032714326 -0.02427192 1.2060001
-0.030705228 -0.024352424 1.21
-0.028776636 -0.024513431 1.2180001
-0.099445038 -0.022455331 1.222
-0.096828662 -0.022345077 1.2160001
-0.09431117 -0.022253197 1.2110001
-0.091887303 -0.022179693 1.207
-0.089477435 -0.022106189 1.2030001
-0.087154202 -0.022051062 1.2
