# .PCD v0.7 - Point Cloud Data file format
VERSION 0.7
FIELDS x y z
SIZE 4 4 4
TYPE F F F
COUNT 1 1 1
WIDTH 1408
HEIGHT 1
VIEWPOINT 0 0 0 1 0 0 0
POINTS 1408
DATA ascii
-0.05563518 -0.085981637 1.156
-0.053565707 -0.085907266 1.1550001
-0.051499732 -0.085832886 1.154
-0.049480133 -0.085832886 1.154
-0.047419406 -0.0857585 1.153
-0.045480315 -0.085907266 1.1550001
-0.043496594 -0.085981637 1.156
-0.041437622 -0.085907266 1.1550001
-0.039348017 -0.0857585 1.153
-0.0372978 -0.085684128 1.1520001
-0.035281699 -0.085684128 1.1520001
-0.033265602 -0.085684128 1.1520001
-0.031222377 -0.085609742 1.151
-0.029208032 -0.085609742 1.151
-0.027217312 -0.085684128 1.1520001
-0.025223089 -0.0857585 1.153
-0.023185117 -0.085684128 1.1520001
-0.021150645 -0.085609742 1.151
-0.019169547 -0.0857585 1.153
-0.017196327 -0.085981637 1.156
-0.015212608 -0.086204782 1.159
-0.013195636 -0.086279154 1.1600001
-0.011184788 -0.086427912 1.1620001
-0.0091748172 -0.08665105 1.1650001
-0.007154345 -0.086874187 1.1680001
-0.0051233717 -0.087097317 1.171
-0.0030818984 -0.087320454 1.174
-0.0010281745 -0.087394841 1.1750001
0.0010307997 -0.087617971 1.1780001
0.003110775 -0.088138625 1.1850001
0.0052240016 -0.088808022 1.194
0.0073381038 -0.089105546 1.1980001
0.0094583314 -0.089328676 1.2010001
-0.092753597 -0.086500548 1.1910001
-0.090516984 -0.086355284 1.189
-0.088287376 -0.086210027 1.187
-0.086210027 -0.086210027 1.187
-0.083849162 -0.085919522 1.1830001
-0.08143317 -0.085556373 1.1780001
-0.079236813 -0.085411109 1.176
-0.07704746 -0.085265853 1.174
-0.075056739 -0.085338488 1.1750001
-0.072751872 -0.085047968 1.171
-0.070642151 -0.084975347 1.1700001
-0.068301417 -0.084612206 1.1650001
-0.066319443 -0.084684826 1.166
-0.064168587 -0.08453957 1.164
-0.062078118 -0.084466949 1.1630001
-0.060042769 -0.084466949 1.1630001
-0.057907663 -0.084321685 1.161
-0.055875815 -0.084321685 1.161
-0.053797591 -0.084249057 1.1600001
-0.051678244 -0.0841038 1.1580001
-0.049608767 -0.084031172 1.1570001
-0.047542788 -0.083958536 1.156
-0.045559071 -0.084031172 1.1570001
-0.043534223 -0.084031172 1.1570001
-0.041473497 -0.083958536 1.156
-0.039416272 -0.083885916 1.1550001
-0.037362549 -0.083813287 1.154
-0.03537358 -0.083885916 1.1550001
-0.03335223 -0.083885916 1.1550001
-0.031276628 -0.083740652 1.153
-0.029233407 -0.083668031 1.1520001
-0.027217312 -0.083668031 1.1520001
-0.025223089 -0.083740652 1.153
-0.023185117 -0.083668031 1.1520001
-0.021150645 -0.083595403 1.151
-0.019169547 -0.083740652 1.153
-0.017196327 -0.083958536 1.156
-0.015199482 -0.0841038 1.1580001
-0.013207011 -0.084321685 1.161
-0.01120404 -0.08453957 1.164
-0.0091826925 -0.084684826 1.166
-0.007154345 -0.08483009 1.1680001
-0.0051277471 -0.085120596 1.1720001
-0.0030897737 -0.085483737 1.177
-0.0010316747 -0.085629001 1.179
0.0010360499 -0.085992143 1.184
0.0031239004 -0.086427912 1.1900001
0.0052371272 -0.08693631 1.197
0.0073381038 -0.087008946 1.1980001
0.0094347047 -0.087008946 1.1980001
0.011598683 -0.087517343 1.205
-0.093065105 -0.084699705 1.1950001
-0.090212472 -0.083990924 1.1850001
-0.088064238 -0.083920039 1.184
-0.085846886 -0.083778284 1.182
-0.083494775 -0.083494775 1.1780001
-0.081156656 -0.083211258 1.174
-0.078967303 -0.083069503 1.1720001
-0.076719321 -0.082856864 1.169
-0.074801229 -0.082998618 1.171
-0.072565503 -0.082785994 1.1680001
-0.07046102 -0.082715109 1.1670001
-0.06818416 -0.082431599 1.1630001
-0.066205688 -0.082502477 1.164
-0.064003207 -0.082289837 1.161
-0.061864607 -0.082148083 1.159
-0.059733 -0.08200632 1.1570001
-0.057658274 -0.081935443 1.156
-0.05563518 -0.081935443 1.156
-0.053658459 -0.08200632 1.1570001
-0.051588982 -0.081935443 1.156
-0.049565885 -0.081935443 1.156
-0.047460537 -0.081793696 1.154
-0.045480315 -0.081864573 1.1550001
-0.043496594 -0.081935443 1.156
-0.041473497 -0.081935443 1.156
-0.039416272 -0.081864573 1.1550001
-0.03739493 -0.081864573 1.1550001
-0.03537358 -0.081864573 1.1550001
-0.033323355 -0.081793696 1.154
-0.031276628 -0.081722803 1.153
-0.029208032 -0.081581056 1.151
-0.027217312 -0.081651933 1.1520001
-0.025179338 -0.081581056 1.151
-0.023164989 -0.081581056 1.151
-0.02116902 -0.081651933 1.1520001
-0.019152923 -0.081651933 1.1520001
-0.017166575 -0.081793696 1.154
-0.015160105 -0.081864573 1.1550001
-0.013172885 -0.082077213 1.1580001
-0.011175163 -0.082289837 1.161
-0.009166941 -0.082502477 1.164
-0.0071482197 -0.082715109 1.1670001
-0.0051146215 -0.082856864 1.169
-0.0030871485 -0.083353005 1.176
-0.0010325498 -0.08363653 1.1800001
0.0010378 -0.084061801 1.1860001
0.0031239004 -0.084345318 1.1900001
0.0052240016 -0.08462882 1.194
0.0073258532 -0.084770583 1.1960001
0.0094347047 -0.084912345 1.1980001
0.011598683 -0.085408486 1.205
-0.090440862 -0.082124457 1.1880001
-0.088138625 -0.08191707 1.1850001
-0.085919522 -0.081778817 1.1830001
-0.083494775 -0.08143317 1.1780001
-0.081087537 -0.081087537 1.1730001
-0.078832544 -0.08088015 1.1700001
-0.076653697 -0.080741897 1.1680001
-0.074737348 -0.08088015 1.1700001
-0.072503366 -0.080672756 1.1670001
-0.07046102 -0.080672756 1.1670001
-0.068242781 -0.080465376 1.164
-0.066205688 -0.080465376 1.164
-0.064003207 -0.080257989 1.161
-0.061864607 -0.080119736 1.159
-0.059733 -0.079981484 1.1570001
-0.057708155 -0.079981484 1.1570001
-0.055731438 -0.08005061 1.1580001
-0.053704839 -0.08005061 1.1580001
-0.051633611 -0.079981484 1.1570001
-0.049608767 -0.079981484 1.1570001
-0.047542788 -0.07991235 1.156
-0.045519691 -0.07991235 1.156
-0.043458972 -0.079843223 1.1550001
-0.041473497 -0.07991235 1.156
-0.0394504 -0.07991235 1.156
-0.037459679 -0.079981484 1.1570001
-0.035404202 -0.07991235 1.156
-0.03335223 -0.079843223 1.1550001
-0.031276628 -0.079704963 1.153
-0.029258784 -0.079704963 1.153
-0.027264563 -0.079774089 1.154
-0.025244966 -0.079774089 1.154
-0.023225369 -0.079774089 1.154
-0.021205772 -0.079774089 1.154
-0.019186174 -0.079774089 1.154
-0.017196327 -0.07991235 1.156
-0.01517323 -0.07991235 1.156
-0.013172885 -0.08005061 1.1580001
-0.011184788 -0.080327116 1.1620001
-0.0091826925 -0.080603629 1.166
-0.0071604699 -0.080811016 1.169
-0.0051189968 -0.08088015 1.1700001
-0.0030897737 -0.081364043 1.177
-0.0010342998 -0.08170969 1.182
0.0010430502 -0.082400963 1.192
0.0031344008 -0.082539223 1.194
0.0052371272 -0.08274661 1.197
0.0073381038 -0.082815744 1.1980001
0.0094662057 -0.08309225 1.202
0.011617934 -0.083437897 1.207
-0.090288602 -0.079910599 1.1860001
-0.087766729 -0.07950633 1.1800001
-0.085556373 -0.079371579 1.1780001
-0.083211258 -0.079102062 1.174
-0.08088015 -0.078832544 1.1700001
-0.07863041 -0.07863041 1.1670001
-0.076456808 -0.078495659 1.1650001
-0.074481837 -0.078563027 1.166
-0.072379112 -0.078495659 1.1650001
-0.070340261 -0.078495659 1.1650001
-0.068066902 -0.078226142 1.161
-0.066035055 -0.078226142 1.161
-0.06394808 -0.078158766 1.1600001
-0.061811231 -0.078024015 1.1580001
-0.059681375 -0.077889249 1.156
-0.057608403 -0.077821873 1.1550001
-0.055587053 -0.077821873 1.1550001
-0.053565707 -0.077821873 1.1550001
-0.051544361 -0.077821873 1.1550001
-0.049480133 -0.07775449 1.154
-0.047378283 -0.077619739 1.1520001
-0.045362186 -0.077619739 1.1520001
-0.043346088 -0.077619739 1.1520001
-0.041437622 -0.077821873 1.1550001
-0.039382145 -0.07775449 1.154
-0.037427302 -0.077889249 1.156
-0.035312325 -0.077687114 1.153
-0.033265602 -0.077619739 1.1520001
-0.031222377 -0.077552356 1.151
-0.029233407 -0.077619739 1.1520001
-0.027217312 -0.077619739 1.1520001
-0.025201214 -0.077619739 1.1520001
-0.023205241 -0.077687114 1.153
-0.021187395 -0.077687114 1.153
-0.019169547 -0.077687114 1.153
-0.017181454 -0.077821873 1.1550001
-0.01517323 -0.077889249 1.156
-0.013150133 -0.077889249 1.156
-0.011146287 -0.078024015 1.1580001
-0.0091590667 -0.078360908 1.1630001
-0.0071604699 -0.078765169 1.169
-0.0051277471 -0.078967303 1.1720001
-0.0030897737 -0.079304196 1.177
-0.0010325498 -0.07950633 1.1800001
0.0010395501 -0.080045357 1.1880001
0.0031265258 -0.080247492 1.1910001
0.0052283769 -0.080517009 1.1950001
0.0073381038 -0.080719136 1.1980001
0.0094740819 -0.081056029 1.2030001
0.011637187 -0.081460305 1.2090001
-0.090136342 -0.077703744 1.184
-0.087617971 -0.077309974 1.1780001
-0.085411109 -0.077178709 1.176
-0.083069503 -0.076916203 1.1720001
-0.080811016 -0.076719321 1.169
-0.07863041 -0.076588064 1.1670001
-0.076456808 -0.076456808 1.1650001
-0.074481837 -0.076522432 1.166
-0.072441243 -0.076522432 1.166
-0.070340261 -0.076456808 1.1650001
-0.068125531 -0.076259919 1.1620001
-0.065978184 -0.076128669 1.1600001
-0.064058334 -0.076259919 1.1620001
-0.061971355 -0.076194294 1.161
-0.059887886 -0.076128669 1.1600001
-0.057708155 -0.07593178 1.1570001
-0.05563518 -0.075866155 1.156
-0.053612083 -0.075866155 1.156
-0.051588982 -0.075866155 1.156
-0.049565885 -0.075866155 1.156
-0.047419406 -0.075669266 1.153
-0.045362186 -0.075603642 1.1520001
-0.043346088 -0.075603642 1.1520001
-0.041401744 -0.075734898 1.154
-0.039382145 -0.075734898 1.154
-0.037427302 -0.075866155 1.156
-0.03537358 -0.075800531 1.1550001
-0.033323355 -0.075734898 1.154
-0.031276628 -0.075669266 1.153
-0.029284159 -0.075734898 1.154
-0.027264563 -0.075734898 1.154
-0.025244966 -0.075734898 1.154
-0.023205241 -0.075669266 1.153
-0.02116902 -0.075603642 1.1520001
-0.019186174 -0.075734898 1.154
-0.017196327 -0.075866155 1.156
-0.015199482 -0.075997412 1.1580001
-0.013172885 -0.075997412 1.1580001
-0.011165539 -0.076128669 1.1600001
-0.0091590667 -0.076325551 1.1630001
-0.0071604699 -0.076719321 1.169
-0.0051408727 -0.077113092 1.1750001
-0.0031002744 -0.077506863 1.1810001
-0.001036925 -0.077769376 1.1850001
0.0010413001 -0.078097515 1.1900001
0.0031291507 -0.078228764 1.192
0.0052458774 -0.078688167 1.199
0.0073626046 -0.078885049 1.202
0.0095134582 -0.079278819 1.2080001
0.011675688 -0.079606958 1.2130001
-0.09244208 -0.075823277 1.187
-0.089907959 -0.075440012 1.1810001
-0.087617971 -0.075248376 1.1780001
-0.085265853 -0.074992865 1.174
-0.082927741 -0.074737348 1.1700001
-0.080741897 -0.0746096 1.1680001
-0.078563027 -0.074481837 1.166
-0.076325551 -0.074290209 1.1630001
-0.074290209 -0.074290209 1.1630001
-0.072192729 -0.074226327 1.1620001
-0.07015913 -0.074226327 1.1620001
-0.067891024 -0.073970817 1.1580001
-0.065807544 -0.073906936 1.1570001
-0.063892953 -0.074034691 1.159
-0.061811231 -0.073970817 1.1580001
-0.059733 -0.073906936 1.1570001
-0.057608403 -0.073779188 1.1550001
-0.055538923 -0.073715299 1.154
-0.053472951 -0.073651418 1.153
-0.051455103 -0.073651418 1.153
-0.04939438 -0.073587552 1.1520001
-0.047213774 -0.073332027 1.148
-0.04512592 -0.073204279 1.146
-0.043195579 -0.073332027 1.148
-0.041294113 -0.073523663 1.151
-0.039313894 -0.073587552 1.1520001
-0.037362549 -0.073715299 1.154
-0.035312325 -0.073651418 1.153
-0.033294477 -0.073651418 1.153
-0.031249505 -0.073587552 1.1520001
-0.029258784 -0.073651418 1.153
-0.027240936 -0.073651418 1.153
-0.025201214 -0.073587552 1.1520001
-0.023185117 -0.073587552 1.1520001
-0.02116902 -0.073587552 1.1520001
-0.019186174 -0.073715299 1.154
-0.017166575 -0.073715299 1.154
-0.01517323 -0.073843054 1.156
-0.013161508 -0.073906936 1.1570001
-0.011136662 -0.073906936 1.1570001
-0.0091275647 -0.074034691 1.159
-0.0071298438 -0.074354075 1.164
-0.0051364973 -0.074992865 1.174
-0.0031028993 -0.075503886 1.182
-0.0010378 -0.075759403 1.1860001
0.001040425 -0.075951025 1.189
0.0031265258 -0.076078795 1.1910001
0.0052283769 -0.076334298 1.1950001
0.0073442282 -0.076589808 1.199
0.0094898315 -0.076973081 1.205
-0.09244208 -0.073745921 1.187
-0.090060212 -0.073497415 1.1830001
-0.087841108 -0.073373161 1.1810001
-0.085411109 -0.073062517 1.176
-0.083069503 -0.07281401 1.1720001
-0.080811016 -0.072627619 1.169
-0.07863041 -0.072503366 1.1670001
-0.076391175 -0.072316982 1.164
-0.074226327 -0.072192729 1.1620001
-0.072068475 -0.072068475 1.1600001
-0.069977991 -0.072006345 1.159
-0.067832395 -0.071882084 1.1570001
-0.065807544 -0.071882084 1.1570001
-0.063837834 -0.071944222 1.1580001
-0.061811231 -0.071944222 1.1580001
-0.059784632 -0.071944222 1.1580001
-0.057658274 -0.071819961 1.156
-0.055587053 -0.071757831 1.1550001
-0.053472951 -0.07163357 1.153
-0.051410478 -0.071571454 1.1520001
-0.049351502 -0.071509317 1.151
-0.047254901 -0.071385063 1.149
-0.0451653 -0.07126081 1.1470001
-0.043195579 -0.071322933 1.148
-0.041258242 -0.071447194 1.1500001
-0.039313894 -0.071571454 1.1520001
-0.037330169 -0.07163357 1.153
-0.035342954 -0.071695708 1.154
-0.03335223 -0.071757831 1.1550001
-0.031358011 -0.071819961 1.156
-0.029360289 -0.071882084 1.1570001
-0.027382694 -0.072006345 1.159
-0.025332471 -0.071944222 1.1580001
-0.023305874 -0.071944222 1.1580001
-0.021242524 -0.071819961 1.156
-0.019236052 -0.071882084 1.1570001
-0.017211204 -0.071882084 1.1570001
-0.015199482 -0.071944222 1.1580001
-0.01318426 -0.072006345 1.159
-0.011165539 -0.072068475 1.1600001
-0.0091511905 -0.072192729 1.1620001
-0.0071420935 -0.072441243 1.166
-0.0051364973 -0.072938263 1.174
-0.0031081496 -0.073559545 1.184
-0.0010421752 -0.073994443 1.1910001
0.0010465505 -0.07430508 1.1960001
0.0031422763 -0.074367203 1.197
0.0052415025 -0.074429341 1.1980001
0.0073748552 -0.074802108 1.2040001
0.0095528355 -0.075361252 1.2130001
-0.092519961 -0.07172896 1.1880001
-0.089984089 -0.07136669 1.182
-0.087766729 -0.071245931 1.1800001
-0.085338488 -0.070944041 1.1750001
-0.082998618 -0.07070253 1.171
-0.080672756 -0.07046102 1.1670001
-0.078495659 -0.070340261 1.1650001
-0.076259919 -0.07015913 1.1620001
-0.074098572 -0.070038378 1.1600001
-0.071882084 -0.069857247 1.1570001
-0.069857247 -0.069857247 1.1570001
-0.06765651 -0.069676101 1.154
-0.065580033 -0.069615722 1.153
-0.063562185 -0.069615722 1.153
-0.061544336 -0.069615722 1.153
-0.059578124 -0.069676101 1.154
-0.057458766 -0.06955535 1.1520001
-0.055442672 -0.06955535 1.1520001
-0.053380195 -0.06949497 1.151
-0.051276594 -0.069374219 1.149
-0.049179994 -0.06925346 1.1470001
-0.047131516 -0.069193088 1.146
-0.045086548 -0.069132708 1.1450001
-0.043082703 -0.069132708 1.1450001
-0.041150611 -0.06925346 1.1470001
-0.039245639 -0.069434598 1.1500001
-0.03726542 -0.06949497 1.151
-0.03525107 -0.06949497 1.151
-0.033265602 -0.06955535 1.1520001
-0.031276628 -0.069615722 1.153
-0.029284159 -0.069676101 1.154
-0.027240936 -0.069615722 1.153
-0.025223089 -0.069615722 1.153
-0.023245497 -0.069736488 1.1550001
-0.021242524 -0.06979686 1.156
-0.019269302 -0.069977991 1.159
-0.017226081 -0.069917619 1.1580001
-0.015199482 -0.069917619 1.1580001
-0.01318426 -0.069977991 1.159
-0.011155913 -0.069977991 1.159
-0.0091590667 -0.070219509 1.1630001
-0.0071420935 -0.07040064 1.166
-0.0051321224 -0.070823289 1.1730001
-0.0031055247 -0.07142707 1.1830001
-0.0010421752 -0.071910091 1.1910001
0.0010474254 -0.072272353 1.197
0.003137026 -0.072151601 1.1950001
0.0052327523 -0.072211981 1.1960001
0.0073442282 -0.072393112 1.199
0.009505582 -0.072876133 1.207
0.011666061 -0.073178023 1.212
-0.092597827 -0.069708481 1.189
-0.089831829 -0.069180831 1.1800001
-0.087617971 -0.069063574 1.1780001
-0.085265853 -0.068829067 1.174
-0.082927741 -0.06859456 1.1700001
-0.080603629 -0.068360038 1.166
-0.078428276 -0.068242781 1.164
-0.076194294 -0.068066902 1.161
-0.074098572 -0.068008281 1.1600001
-0.071819961 -0.067773767 1.156
-0.069736488 -0.067715146 1.1550001
-0.06765651 -0.06765651 1.154
-0.065580033 -0.067597881 1.153
-0.063562185 -0.067597881 1.153
-0.06149096 -0.067539252 1.1520001
-0.059578124 -0.06765651 1.154
-0.057508644 -0.067597881 1.153
-0.055490796 -0.067597881 1.153
-0.053333819 -0.067421995 1.1500001
-0.051142715 -0.067187488 1.146
-0.049051363 -0.067070231 1.1440001
-0.047049265 -0.067070231 1.1440001
-0.04512592 -0.067187488 1.146
-0.043157954 -0.067246117 1.1470001
-0.041186482 -0.067304738 1.148
-0.039211512 -0.067363366 1.149
-0.037233043 -0.067421995 1.1500001
-0.035312325 -0.067597881 1.153
-0.03335223 -0.067715146 1.1550001
-0.031330887 -0.067715146 1.1550001
-0.029284159 -0.06765651 1.154
-0.027240936 -0.067597881 1.153
-0.025244966 -0.06765651 1.154
-0.023225369 -0.06765651 1.154
-0.021242524 -0.067773767 1.156
-0.019236052 -0.067832395 1.1570001
-0.017255832 -0.068008281 1.1600001
-0.015251984 -0.068125531 1.1620001
-0.013229763 -0.06818416 1.1630001
-0.011194414 -0.06818416 1.1630001
-0.0091748172 -0.068301417 1.1650001
-0.007154345 -0.068477303 1.1680001
-0.0051364973 -0.068829067 1.174
-0.0031055247 -0.069356717 1.1830001
-0.0010421752 -0.069825739 1.1910001
0.0010465505 -0.070118874 1.1960001
0.0031396514 -0.070118874 1.1960001
0.0052327523 -0.070118874 1.1960001
0.0073564793 -0.070412017 1.2010001
0.0094898315 -0.070646524 1.205
-0.092519961 -0.067570761 1.1880001
-0.089679569 -0.067001984 1.1780001
-0.087543592 -0.066945098 1.177
-0.085120596 -0.06666071 1.1720001
-0.082785994 -0.066433199 1.1680001
-0.08039625 -0.066148818 1.1630001
-0.078226142 -0.066035055 1.161
-0.075997412 -0.065864421 1.1580001
-0.073906936 -0.065807544 1.1570001
-0.071695708 -0.06563691 1.154
-0.069676101 -0.06563691 1.154
-0.067539252 -0.065523155 1.1520001
-0.065466277 -0.065466277 1.151
-0.063451931 -0.065466277 1.151
-0.061384212 -0.065409407 1.1500001
-0.059474863 -0.065523155 1.1520001
-0.057359014 -0.065409407 1.1500001
-0.055298291 -0.065352522 1.149
-0.053009175 -0.065011255 1.143
-0.050741069 -0.064669997 1.1370001
-0.048622593 -0.064499363 1.1340001
-0.046679124 -0.064556241 1.1350001
-0.044889662 -0.064840622 1.1400001
-0.043045074 -0.065068133 1.1440001
-0.041150611 -0.065238774 1.1470001
-0.039143261 -0.065238774 1.1470001
-0.03716829 -0.065295644 1.148
-0.035220448 -0.065409407 1.1500001
-0.033265602 -0.065523155 1.1520001
-0.031276628 -0.065580033 1.153
-0.029258784 -0.065580033 1.153
-0.027217312 -0.065523155 1.1520001
-0.025201214 -0.065523155 1.1520001
-0.023185117 -0.065523155 1.1520001
-0.021187395 -0.065580033 1.153
-0.0192028 -0.065693788 1.1550001
-0.017240956 -0.065921299 1.159
-0.015238859 -0.066035055 1.161
-0.013229763 -0.066148818 1.1630001
-0.011184788 -0.06609194 1.1620001
-0.0091748172 -0.066262566 1.1650001
-0.0071482197 -0.066376321 1.1670001
-0.0051408727 -0.06683135 1.1750001
-0.0031055247 -0.067286365 1.1830001
-0.001040425 -0.067627631 1.189
0.0010413001 -0.067684516 1.1900001
0.0031265258 -0.067741394 1.1910001
0.0052327523 -0.068025775 1.1960001
0.0073381038 -0.068139531 1.1980001
0.0095134582 -0.068708308 1.2080001
-0.092286319 -0.065326273 1.1850001
-0.089755692 -0.064995505 1.179
-0.087469205 -0.064830117 1.176
-0.085047968 -0.064554483 1.171
-0.082785994 -0.064389102 1.1680001
-0.080327116 -0.064058334 1.1620001
-0.078158766 -0.06394808 1.1600001
-0.075997412 -0.063837834 1.1580001
-0.073843054 -0.063727573 1.156
-0.07163357 -0.063562185 1.153
-0.06949497 -0.063451931 1.151
-0.067480624 -0.063451931 1.151
-0.065523155 -0.063507058 1.1520001
-0.063562185 -0.063562185 1.153
-0.06149096 -0.063507058 1.1520001
-0.059423238 -0.063451931 1.151
-0.057209384 -0.063231416 1.1470001
-0.055009525 -0.063010909 1.143
-0.052684534 -0.062625013 1.136
-0.050562561 -0.062459629 1.133
-0.048451081 -0.062294248 1.13
-0.046473488 -0.062294248 1.13
-0.044692781 -0.062569894 1.1350001
-0.04293219 -0.062900655 1.141
-0.041186482 -0.063286543 1.148
-0.039211512 -0.063341677 1.149
-0.037233043 -0.063396804 1.1500001
-0.03525107 -0.063451931 1.151
-0.033294477 -0.063562185 1.153
-0.031330887 -0.063672446 1.1550001
-0.029334914 -0.063727573 1.156
-0.027311815 -0.063727573 1.156
-0.025288716 -0.063727573 1.156
-0.023245497 -0.063672446 1.1550001
-0.021242524 -0.063727573 1.156
-0.019219426 -0.063727573 1.156
-0.017240956 -0.063892953 1.159
-0.015238859 -0.064003207 1.161
-0.013241137 -0.064168587 1.164
-0.011213665 -0.064223722 1.1650001
-0.0091826925 -0.064278841 1.166
-0.007154345 -0.064389102 1.1680001
-0.0051496229 -0.064885251 1.177
-0.003110775 -0.065326273 1.1850001
-0.0010413001 -0.065601908 1.1900001
0.001040425 -0.065546781 1.189
0.0031317759 -0.065767296 1.1930001
0.0052415025 -0.066042937 1.1980001
-0.092130564 -0.063145667 1.1830001
-0.089679569 -0.062878788 1.1780001
-0.087394841 -0.062718645 1.1750001
-0.084975347 -0.062451757 1.1700001
-0.082715109 -0.062291626 1.1670001
-0.08039625 -0.062078118 1.1630001
-0.078226142 -0.061971355 1.161
-0.075997412 -0.061811231 1.1580001
-0.073779188 -0.061651092 1.1550001
-0.071571454 -0.06149096 1.1520001
-0.069434598 -0.061384212 1.1500001
-0.067421995 -0.061384212 1.1500001
-0.065409407 -0.061384212 1.1500001
-0.063451931 -0.061437581 1.151
-0.061330829 -0.061330829 1.149
-0.059268355 -0.061277449 1.148
-0.057009868 -0.061010562 1.143
-0.054817017 -0.060797054 1.1390001
-0.052499034 -0.060423411 1.1320001
-0.050428677 -0.060316652 1.13
-0.048365328 -0.060209896 1.128
-0.046391234 -0.060209896 1.128
-0.044495892 -0.060316652 1.13
-0.042706434 -0.060583547 1.1350001
-0.041042976 -0.061063942 1.1440001
-0.039177384 -0.061277449 1.148
-0.03716829 -0.061277449 1.148
-0.035128571 -0.061224073 1.1470001
-0.033150095 -0.061277449 1.148
-0.031249505 -0.06149096 1.1520001
-0.029284159 -0.06159772 1.154
-0.027264563 -0.06159772 1.154
-0.025266843 -0.061651092 1.1550001
-0.023245497 -0.061651092 1.1550001
-0.021260899 -0.061757851 1.1570001
-0.019236052 -0.061757851 1.1570001
-0.017211204 -0.061757851 1.1570001
-0.015199482 -0.061811231 1.1580001
-0.013207011 -0.061971355 1.161
-0.011213665 -0.06218487 1.1650001
-0.0091905678 -0.062291626 1.1670001
-0.0071665952 -0.062451757 1.1700001
-0.0051496229 -0.062825404 1.177
-0.0031081496 -0.063199043 1.184
-0.0010413001 -0.063519314 1.1900001
0.0010395501 -0.063412555 1.1880001
0.0031239004 -0.063519314 1.1900001
0.0052283769 -0.063786201 1.1950001
-0.092052683 -0.061023686 1.182
-0.089603439 -0.06076555 1.177
-0.087394841 -0.060662299 1.1750001
-0.085193232 -0.060559046 1.1730001
-0.082856864 -0.06035253 1.169
-0.080465376 -0.060094394 1.164
-0.078226142 -0.059939511 1.161
-0.076063037 -0.059836257 1.159
-0.073843054 -0.059681375 1.156
-0.071571454 -0.059474863 1.1520001
-0.069374219 -0.05931998 1.149
-0.067363366 -0.05931998 1.149
-0.065352522 -0.05931998 1.149
-0.063396804 -0.059371613 1.1500001
-0.061224073 -0.059216727 1.1470001
-0.059113476 -0.059113476 1.1450001
-0.056959994 -0.058958594 1.1420001
-0.054865144 -0.05885534 1.1400001
-0.052638166 -0.0585972 1.1350001
-0.050517935 -0.058442313 1.1320001
-0.048451081 -0.058339056 1.13
-0.046473488 -0.058339056 1.13
-0.044535268 -0.058390688 1.131
-0.042706434 -0.0585972 1.1350001
-0.040935345 -0.058906961 1.141
-0.039109133 -0.059165098 1.146
-0.037135914 -0.059216727 1.1470001
-0.035159193 -0.059268355 1.148
-0.03317897 -0.05931998 1.149
-0.031249505 -0.059474863 1.1520001
-0.029284159 -0.059578124 1.154
-0.027264563 -0.059578124 1.154
-0.025288716 -0.059681375 1.156
-0.023305874 -0.059784632 1.1580001
-0.02129765 -0.059836257 1.159
-0.019269302 -0.059836257 1.159
-0.017240956 -0.059836257 1.159
-0.015225734 -0.059887886 1.1600001
-0.013207011 -0.059939511 1.161
-0.011213665 -0.060146026 1.1650001
-0.009198444 -0.060300905 1.1680001
-0.0071788458 -0.060507413 1.1720001
-0.0051452476 -0.060713924 1.176
-0.0031055247 -0.061075319 1.1830001
-0.0010413001 -0.061436713 1.1900001
0.0010421752 -0.061488338 1.1910001
0.0031344008 -0.061643217 1.194
0.0052458774 -0.061901353 1.199
-0.092130564 -0.05900497 1.1830001
-0.089603439 -0.058705702 1.177
-0.087394841 -0.05860595 1.1750001
-0.085193232 -0.058506198 1.1730001
-0.082856864 -0.058306683 1.169
-0.080603629 -0.058157045 1.166
-0.078293525 -0.057957541 1.1620001
-0.076128669 -0.057857785 1.1600001
-0.073843054 -0.057658274 1.156
-0.07163357 -0.057508644 1.153
-0.069434598 -0.057359014 1.1500001
-0.067363366 -0.057309136 1.149
-0.065352522 -0.057309136 1.149
-0.063341677 -0.057309136 1.149
-0.061224073 -0.057209384 1.1470001
-0.059113476 -0.057109628 1.1450001
-0.057059746 -0.057059746 1.1440001
-0.055009525 -0.057009868 1.143
-0.05282367 -0.056810364 1.1390001
-0.050651819 -0.056610856 1.1350001
-0.048579715 -0.056511097 1.133
-0.046637997 -0.056560971 1.1340001
-0.044692781 -0.056610856 1.1350001
-0.042744059 -0.056660727 1.136
-0.040827714 -0.056760479 1.138
-0.038972627 -0.056959994 1.1420001
-0.037071165 -0.057109628 1.1450001
-0.035128571 -0.057209384 1.1470001
-0.033150095 -0.057259254 1.148
-0.031222377 -0.057408892 1.151
-0.029208032 -0.057408892 1.151
-0.027217312 -0.057458766 1.1520001
-0.025223089 -0.057508644 1.153
-0.023265621 -0.057658274 1.156
-0.021279277 -0.057758033 1.1580001
-0.019252678 -0.057758033 1.1580001
-0.017226081 -0.057758033 1.1580001
-0.015225734 -0.057857785 1.1600001
-0.013218387 -0.057957541 1.1620001
-0.011213665 -0.058107179 1.1650001
-0.0091905678 -0.058206931 1.1670001
-0.0071727205 -0.058406439 1.171
-0.0051408727 -0.05860595 1.1750001
-0.0031081496 -0.05905484 1.184
-0.0010421752 -0.059403993 1.1910001
0.0010439253 -0.059503745 1.1930001
0.003137026 -0.059603497 1.1950001
0.0052633784 -0.060002517 1.2030001
-0.092052683 -0.05688649 1.182
-0.089451186 -0.056549601 1.1750001
-0.087097317 -0.056357086 1.171
-0.084902711 -0.056260832 1.169
-0.082644224 -0.056116447 1.166
-0.080465376 -0.0560202 1.164
-0.078158766 -0.055827688 1.1600001
-0.075997412 -0.055731438 1.1580001
-0.073779188 -0.055587053 1.1550001
-0.071509317 -0.055394541 1.151
-0.069374219 -0.055298291 1.149
-0.067304738 -0.055250157 1.148
-0.065295644 -0.055250157 1.148
-0.063231416 -0.055202033 1.1470001
-0.061170693 -0.055153906 1.146
-0.059010219 -0.055009525 1.143
-0.056910116 -0.054913267 1.141
-0.054865144 -0.054865144 1.1400001
-0.05277729 -0.054768886 1.138
-0.050651819 -0.054624509 1.1350001
-0.048622593 -0.054576378 1.1340001
-0.046761379 -0.054720763 1.1370001
-0.044889662 -0.054865144 1.1400001
-0.042894568 -0.054865144 1.1400001
-0.040827714 -0.054768886 1.138
-0.0389385 -0.054913267 1.141
-0.037038784 -0.055057652 1.1440001
-0.035097938 -0.055153906 1.146
-0.033092342 -0.055153906 1.146
-0.031141 -0.055250157 1.148
-0.029182656 -0.055346418 1.1500001
-0.027217312 -0.055442672 1.1520001
-0.025223089 -0.055490796 1.153
-0.023245497 -0.055587053 1.1550001
-0.021224147 -0.055587053 1.1550001
-0.019219426 -0.05563518 1.156
-0.017196327 -0.05563518 1.156
-0.015212608 -0.055779561 1.159
-0.013195636 -0.055827688 1.1600001
-0.011194414 -0.055972073 1.1630001
-0.0091748172 -0.056068327 1.1650001
-0.007154345 -0.056212708 1.1680001
-0.0051364973 -0.056501471 1.174
-0.0031081496 -0.056982744 1.184
-0.0010421752 -0.057319637 1.1910001
0.0010465505 -0.057560276 1.1960001
-0.094439805 -0.055003401 1.1860001
-0.09197481 -0.054771516 1.1810001
-0.089527309 -0.054539625 1.176
-0.087022945 -0.054261364 1.1700001
-0.084757462 -0.054122232 1.1670001
-0.082573354 -0.054029476 1.1650001
-0.08039625 -0.053936727 1.1630001
-0.078158766 -0.053797591 1.1600001
-0.07593178 -0.053658459 1.1570001
-0.073715299 -0.053519327 1.154
-0.071509317 -0.053380195 1.151
-0.06949497 -0.053380195 1.151
-0.067363366 -0.053287443 1.149
-0.065295644 -0.053241063 1.148
-0.06312117 -0.053101934 1.1450001
-0.061063942 -0.053055558 1.1440001
-0.058958594 -0.052962802 1.1420001
-0.056910116 -0.052916426 1.141
-0.054817017 -0.05282367 1.1390001
-0.052730918 -0.052730918 1.1370001
-0.050651819 -0.052638166 1.1350001
-0.048708346 -0.052684534 1.136
-0.046843629 -0.05282367 1.1390001
-0.044968415 -0.052962802 1.1420001
-0.042894568 -0.05287005 1.1400001
-0.040863592 -0.05282367 1.1390001
-0.039006751 -0.053009175 1.143
-0.037103537 -0.053148311 1.146
-0.035097938 -0.053148311 1.146
-0.033063468 -0.053101934 1.1450001
-0.031086747 -0.053148311 1.146
-0.029131902 -0.053241063 1.148
-0.027193684 -0.053380195 1.151
-0.025201214 -0.053426575 1.1520001
-0.023225369 -0.053519327 1.154
-0.021187395 -0.053472951 1.153
-0.019186174 -0.053519327 1.154
-0.017181454 -0.053565707 1.1550001
-0.015212608 -0.053751212 1.159
-0.013207011 -0.053843968 1.161
-0.01120404 -0.0539831 1.164
-0.0091748172 -0.054029476 1.1650001
-0.0071604699 -0.054214984 1.169
-0.0051496229 -0.054586004 1.177
-0.003110775 -0.054957025 1.1850001
-0.0010448003 -0.055374417 1.194
0.0010500506 -0.055652682 1.2
-0.096759535 -0.053061679 1.189
-0.094121285 -0.052749291 1.182
-0.091663294 -0.052526154 1.177
-0.089298934 -0.052347649 1.1730001
-0.086874187 -0.052124511 1.1680001
-0.084612206 -0.051990632 1.1650001
-0.082360715 -0.051856749 1.1620001
-0.080188863 -0.051767495 1.1600001
-0.077889249 -0.051588982 1.156
-0.075734898 -0.051499732 1.154
-0.073523663 -0.051365849 1.151
-0.071385063 -0.051276594 1.149
-0.069313832 -0.051231965 1.148
-0.067187488 -0.051142715 1.146
-0.065068133 -0.051053457 1.1440001
-0.062900655 -0.050919577 1.141
-0.060850438 -0.050874956 1.1400001
-0.058803707 -0.050830327 1.1390001
-0.056710608 -0.050741069 1.1370001
-0.054624509 -0.050651819 1.1350001
-0.052545402 -0.050562561 1.133
-0.050562561 -0.050562561 1.133
-0.048665471 -0.050651819 1.1350001
-0.046761379 -0.050741069 1.1370001
-0.044850286 -0.050830327 1.1390001
-0.042819314 -0.050785694 1.138
-0.040899474 -0.050874956 1.1400001
-0.039006751 -0.051008828 1.143
-0.037071165 -0.05109809 1.1450001
-0.035036687 -0.051053457 1.1440001
-0.033005714 -0.051008828 1.143
-0.030978244 -0.050964206 1.1420001
-0.029030399 -0.051053457 1.1440001
-0.027122805 -0.051231965 1.148
-0.025157463 -0.051321223 1.1500001
-0.023205241 -0.051455103 1.153
-0.02116902 -0.051410478 1.1520001
-0.019186174 -0.051499732 1.154
-0.017181454 -0.051544361 1.1550001
-0.015186357 -0.051633611 1.1570001
-0.01318426 -0.051722866 1.159
-0.011175163 -0.05181212 1.161
-0.009166941 -0.051946003 1.164
-0.007154345 -0.052124511 1.1680001
-0.0051496229 -0.052526154 1.177
-0.003110775 -0.052883171 1.1850001
-0.0010456754 -0.053329445 1.1950001
-0.096840918 -0.051023707 1.1900001
-0.094280541 -0.050766442 1.184
-0.091741174 -0.050509185 1.1780001
-0.089451186 -0.050380554 1.1750001
-0.087171696 -0.05025192 1.1720001
-0.084902711 -0.050123289 1.169
-0.082502477 -0.049908906 1.164
-0.080257989 -0.049780272 1.161
-0.077956632 -0.049608767 1.1570001
-0.075734898 -0.049480133 1.154
-0.073459789 -0.049308628 1.1500001
-0.071385063 -0.04926575 1.149
-0.069313832 -0.049222868 1.148
-0.067187488 -0.049137119 1.146
-0.065011255 -0.049008485 1.143
-0.062900655 -0.048922729 1.141
-0.060850438 -0.048879854 1.1400001
-0.058803707 -0.04883698 1.1390001
-0.056660727 -0.048708346 1.136
-0.054576378 -0.048622593 1.1340001
-0.052591786 -0.048622593 1.1340001
-0.05060719 -0.048622593 1.1340001
-0.048751224 -0.048751224 1.1370001
-0.046802502 -0.048794098 1.138
-0.044889662 -0.048879854 1.1400001
-0.042856939 -0.04883698 1.1390001
-0.040971223 -0.048965611 1.1420001
-0.039040878 -0.049051363 1.1440001
-0.037103537 -0.049137119 1.146
-0.035128571 -0.049179994 1.1470001
-0.033121221 -0.049179994 1.1470001
-0.031032493 -0.049051363 1.1440001
-0.029005021 -0.049008485 1.143
-0.027051929 -0.049094241 1.1450001
-0.025113709 -0.049222868 1.148
-0.023185117 -0.04939438 1.1520001
-0.021187395 -0.049437255 1.153
-0.019236052 -0.049608767 1.1570001
-0.017211204 -0.049608767 1.1570001
-0.015225734 -0.049737398 1.1600001
-0.013207011 -0.049780272 1.161
-0.01120404 -0.049908906 1.164
-0.0091826925 -0.049994655 1.166
-0.0071727205 -0.050209042 1.171
-0.0051583732 -0.050552059 1.179
-0.096840918 -0.048941109 1.1900001
-0.094200917 -0.048653223 1.1830001
-0.091585405 -0.048365328 1.176
-0.089222796 -0.048200823 1.1720001
-0.087022945 -0.048118569 1.1700001
-0.084757462 -0.047995187 1.1670001
-0.082289837 -0.047748424 1.161
-0.079981484 -0.047583915 1.1570001
-0.077687114 -0.047419406 1.153
-0.075472392 -0.047296029 1.1500001
-0.073268153 -0.047172651 1.1470001
-0.07119868 -0.047131516 1.146
-0.069132708 -0.047090396 1.1450001
-0.066952981 -0.046967015 1.1420001
-0.064783745 -0.046843629 1.1390001
-0.062735267 -0.046802502 1.138
-0.060690299 -0.046761379 1.1370001
-0.058700457 -0.046761379 1.1370001
-0.056461219 -0.046555743 1.1320001
-0.054335743 -0.046432361 1.1290001
-0.052359898 -0.046432361 1.1290001
-0.050473306 -0.046514615 1.131
-0.048622593 -0.046637997 1.1340001
-0.046679124 -0.046679124 1.1350001
-0.044810906 -0.046802502 1.138
-0.042856939 -0.046843629 1.1390001
-0.040935345 -0.046925887 1.141
-0.0389385 -0.046925887 1.141
-0.037006408 -0.047008138 1.143
-0.035067316 -0.047090396 1.1450001
-0.033063468 -0.047090396 1.1450001
-0.030951116 -0.046925887 1.141
-0.028928893 -0.04688476 1.1400001
-0.027004674 -0.047008138 1.143
-0.025069958 -0.047131516 1.146
-0.02312474 -0.047254901 1.149
-0.021150645 -0.047337152 1.151
-0.0192028 -0.047501665 1.1550001
-0.017211204 -0.047583915 1.1570001
-0.015199482 -0.047625046 1.1580001
-0.01318426 -0.047666173 1.159
-0.011194414 -0.047830679 1.1630001
-0.0091748172 -0.047912937 1.1650001
-0.0071665952 -0.048118569 1.1700001
-0.005162749 -0.048529837 1.1800001
-0.096759535 -0.046819128 1.189
-0.094200917 -0.04658287 1.1830001
-0.091741174 -0.046385989 1.1780001
-0.089451186 -0.046267856 1.1750001
-0.087171696 -0.046149723 1.1720001
-0.08483009 -0.045992218 1.1680001
-0.082360715 -0.045755953 1.1620001
-0.079981484 -0.045559071 1.1570001
-0.07775449 -0.045440938 1.154
-0.075538017 -0.045322809 1.151
-0.073459789 -0.045283433 1.1500001
-0.071385063 -0.045244053 1.149
-0.069374219 -0.045244053 1.149
-0.067187488 -0.04512592 1.146
-0.065011255 -0.045007791 1.143
-0.062845528 -0.044889662 1.1400001
-0.060743671 -0.044810906 1.138
-0.058700457 -0.044771533 1.1370001
-0.056511097 -0.044614021 1.133
-0.054431997 -0.044535268 1.131
-0.05245265 -0.044535268 1.131
-0.050473306 -0.044535268 1.131
-0.048536841 -0.044574648 1.1320001
-0.046596866 -0.044614021 1.133
-0.044771533 -0.044771533 1.1370001
-0.042856939 -0.044850286 1.1390001
-0.040971223 -0.044968415 1.1420001
-0.039006751 -0.045007791 1.143
-0.037071165 -0.045086548 1.1450001
-0.035097938 -0.04512592 1.146
-0.033063468 -0.045086548 1.1450001
-0.031005366 -0.045007791 1.143
-0.029005021 -0.045007791 1.143
-0.027051929 -0.045086548 1.1450001
-0.025113709 -0.045204677 1.148
-0.023144865 -0.045283433 1.1500001
-0.02116902 -0.045362186 1.1520001
-0.019236052 -0.045559071 1.1570001
-0.017240956 -0.045637824 1.159
-0.015251984 -0.045755953 1.1620001
-0.013229763 -0.045795336 1.1630001
-0.011242542 -0.045992218 1.1680001
-0.0092141945 -0.046070967 1.1700001
-0.007203347 -0.046307229 1.176
-0.096596777 -0.044663023 1.187
-0.09404166 -0.044437267 1.1810001
-0.091663294 -0.044286758 1.177
-0.089298934 -0.044136252 1.1730001
-0.086948566 -0.043985743 1.169
-0.084466949 -0.043759983 1.1630001
-0.08221896 -0.043647103 1.1600001
-0.079774089 -0.043421339 1.154
-0.077552356 -0.043308459 1.151
-0.075341128 -0.043195579 1.148
-0.073332027 -0.043195579 1.148
-0.07126081 -0.043157954 1.1470001
-0.06925346 -0.043157954 1.1470001
-0.067128859 -0.043082703 1.1450001
-0.064954378 -0.042969819 1.1420001
-0.062900655 -0.04293219 1.141
-0.060797054 -0.042856939 1.1390001
-0.058700457 -0.042781685 1.1370001
-0.056461219 -0.042593554 1.1320001
-0.054335743 -0.042480674 1.1290001
-0.05240627 -0.042518295 1.13
-0.050428677 -0.042518295 1.13
-0.048451081 -0.042518295 1.13
-0.046432361 -0.042480674 1.1290001
-0.044535268 -0.042555925 1.131
-0.042668805 -0.042668805 1.1340001
-0.040791843 -0.042781685 1.1370001
-0.038870245 -0.042856939 1.1390001
-0.036941655 -0.04293219 1.141
-0.035006061 -0.043007448 1.143
-0.033005714 -0.043007448 1.143
-0.031005366 -0.043007448 1.143
-0.029081151 -0.043120325 1.146
-0.027146433 -0.043233208 1.149
-0.025201214 -0.043346088 1.1520001
-0.023185117 -0.043346088 1.1520001
-0.021187395 -0.04338371 1.153
-0.019219426 -0.043496594 1.156
-0.017240956 -0.043609474 1.159
-0.015238859 -0.043684728 1.161
-0.013241137 -0.043797608 1.164
-0.011242542 -0.043948118 1.1680001
-0.0092299441 -0.044098627 1.1720001
-0.007221723 -0.044362012 1.179
-0.098840386 -0.042657427 1.189
-0.096352637 -0.042478044 1.184
-0.093962029 -0.042334538 1.1800001
-0.09181904 -0.04229866 1.179
-0.089451186 -0.042155158 1.1750001
-0.087097317 -0.042011648 1.171
-0.084612206 -0.04179639 1.1650001
-0.08221896 -0.041617006 1.1600001
-0.07991235 -0.041473497 1.156
-0.077687114 -0.041365866 1.153
-0.075472392 -0.041258242 1.1500001
-0.073332027 -0.041186482 1.148
-0.071322933 -0.041186482 1.148
-0.06925346 -0.041150611 1.1470001
-0.067128859 -0.041078854 1.1450001
-0.065011255 -0.041007098 1.143
-0.062955789 -0.040971223 1.1420001
-0.06090381 -0.040935345 1.141
-0.058700457 -0.040791843 1.1370001
-0.056610856 -0.040720087 1.1350001
-0.054576378 -0.040684212 1.1340001
-0.052638166 -0.040720087 1.1350001
-0.050651819 -0.040720087 1.1350001
-0.048665471 -0.040720087 1.1350001
-0.046596866 -0.04064833 1.133
-0.044614021 -0.04064833 1.133
-0.042706434 -0.040720087 1.1350001
-0.040791843 -0.040791843 1.1370001
-0.038870245 -0.040863592 1.1390001
-0.036909278 -0.040899474 1.1400001
-0.034975436 -0.040971223 1.1420001
-0.033063468 -0.041078854 1.1450001
-0.031168127 -0.04122236 1.149
-0.029233407 -0.041329991 1.1520001
-0.027264563 -0.041401744 1.154
-0.025244966 -0.041401744 1.154
-0.023245497 -0.041437622 1.1550001
-0.021242524 -0.041473497 1.156
-0.019252678 -0.041545253 1.1580001
-0.017270707 -0.041652881 1.161
-0.015278236 -0.041760512 1.164
-0.01328664 -0.041904021 1.1680001
-0.011271418 -0.042011648 1.171
-0.0092693213 -0.042226911 1.177
-0.098591007 -0.040474202 1.1860001
-0.096189879 -0.040337693 1.182
-0.093882397 -0.040235311 1.179
-0.091741174 -0.040201191 1.1780001
-0.089298934 -0.040030558 1.1730001
-0.086948566 -0.039894044 1.169
-0.084394321 -0.03965516 1.1620001
-0.082077213 -0.039518654 1.1580001
-0.079774089 -0.039382145 1.154
-0.077619739 -0.039313894 1.1520001
-0.075341128 -0.039177384 1.148
-0.073140398 -0.03907501 1.1450001
-0.071012296 -0.039006751 1.143
-0.068891197 -0.0389385 1.141
-0.066659838 -0.038801994 1.1370001
-0.064613111 -0.038767867 1.136
-0.062625013 -0.038767867 1.136
-0.060690299 -0.038801994 1.1370001
-0.058545571 -0.038699616 1.1340001
-0.056511097 -0.038665485 1.133
-0.054528251 -0.038665485 1.133
-0.052684534 -0.038767867 1.136
-0.050741069 -0.038801994 1.1370001
-0.048708346 -0.038767867 1.136
-0.046637997 -0.038699616 1.1340001
-0.044614021 -0.038665485 1.133
-0.042631179 -0.038665485 1.133
-0.040720087 -0.038733743 1.1350001
-0.038801994 -0.038801994 1.1370001
-0.036812149 -0.038801994 1.1370001
-0.034944806 -0.0389385 1.141
-0.033063468 -0.03907501 1.1450001
-0.031222377 -0.039279766 1.151
-0.029284159 -0.039382145 1.154
-0.027288191 -0.039416272 1.1550001
-0.025266843 -0.039416272 1.1550001
-0.023265621 -0.0394504 1.156
-0.021242524 -0.0394504 1.156
-0.019269302 -0.039552778 1.159
-0.017270707 -0.039621033 1.161
-0.015278236 -0.039723411 1.164
-0.013263889 -0.039791662 1.166
-0.011252167 -0.039894044 1.169
-0.09842474 -0.038333844 1.184
-0.096189879 -0.038269091 1.182
-0.093882397 -0.038171962 1.179
-0.091741174 -0.038139589 1.1780001
-0.089375049 -0.038010079 1.174
-0.087022945 -0.037880573 1.1700001
-0.08453957 -0.037686314 1.164
-0.082148083 -0.037524432 1.159
-0.07991235 -0.037427302 1.156
-0.077821873 -0.03739493 1.1550001
-0.075603642 -0.0372978 1.1520001
-0.073268153 -0.037135914 1.1470001
-0.071012296 -0.037006408 1.143
-0.068891197 -0.036941655 1.141
-0.066718459 -0.036844522 1.138
-0.064726867 -0.036844522 1.138
-0.062625013 -0.036779772 1.136
-0.060636923 -0.036779772 1.136
-0.058493938 -0.036682643 1.133
-0.056560971 -0.036715019 1.1340001
-0.054624509 -0.036747396 1.1350001
-0.05282367 -0.036876902 1.1390001
-0.050919577 -0.036941655 1.141
-0.048965611 -0.036974031 1.1420001
-0.04688476 -0.036909278 1.1400001
-0.044850286 -0.036876902 1.1390001
-0.042856939 -0.036876902 1.1390001
-0.040899474 -0.036909278 1.1400001
-0.038904376 -0.036909278 1.1400001
-0.036909278 -0.036909278 1.1400001
-0.035006061 -0.037006408 1.143
-0.033150095 -0.03716829 1.148
-0.03130376 -0.037362549 1.154
-0.029334914 -0.037427302 1.156
-0.027359068 -0.037492059 1.1580001
-0.025332471 -0.037492059 1.1580001
-0.023346126 -0.037556808 1.1600001
-0.021316027 -0.037556808 1.1600001
-0.019335808 -0.037653942 1.1630001
-0.017330211 -0.037718695 1.1650001
-0.015343864 -0.037848197 1.169
-0.013320765 -0.03791295 1.171
-0.011319545 -0.038074832 1.176
-0.096434027 -0.036292374 1.1850001
-0.093962029 -0.036139242 1.1800001
-0.091585405 -0.036016732 1.176
-0.089222796 -0.035894226 1.1720001
-0.086874187 -0.035771728 1.1680001
-0.084394321 -0.035587963 1.1620001
-0.08200632 -0.035434831 1.1570001
-0.079843223 -0.03537358 1.1550001
-0.077687114 -0.035312325 1.153
-0.075472392 -0.035220448 1.1500001
-0.073140398 -0.035067316 1.1450001
-0.07082592 -0.034914184 1.1400001
-0.068710059 -0.034852929 1.138
-0.066542581 -0.034761049 1.1350001
-0.064556241 -0.034761049 1.1350001
-0.06251476 -0.034730423 1.1340001
-0.060530167 -0.034730423 1.1340001
-0.058442313 -0.034669172 1.1320001
-0.056461219 -0.034669172 1.1320001
-0.054480128 -0.034669172 1.1320001
-0.052638166 -0.034761049 1.1350001
-0.05069644 -0.034791674 1.136
-0.04883698 -0.034883555 1.1390001
-0.046843629 -0.034883555 1.1390001
-0.044889662 -0.034914184 1.1400001
-0.042894568 -0.034914184 1.1400001
-0.040899474 -0.034914184 1.1400001
-0.038904376 -0.034914184 1.1400001
-0.036974031 -0.034975436 1.1420001
-0.035036687 -0.035036687 1.1440001
-0.033150095 -0.035159193 1.148
-0.031249505 -0.035281699 1.1520001
-0.029334914 -0.035404202 1.156
-0.027359068 -0.03546546 1.1580001
-0.025354346 -0.035496086 1.159
-0.02336625 -0.035557337 1.161
-0.021352777 -0.035587963 1.1620001
-0.019352432 -0.035649218 1.164
-0.017345086 -0.035710469 1.166
-0.015343864 -0.035802349 1.169
-0.013320765 -0.035863601 1.171
-0.094280541 -0.034189645 1.184
-0.091741174 -0.034016389 1.1780001
-0.089298934 -0.033872008 1.1730001
-0.086799808 -0.033698749 1.1670001
-0.084321685 -0.033525489 1.161
-0.082148083 -0.033467736 1.159
-0.079981484 -0.033409987 1.1570001
-0.07775449 -0.033323355 1.154
-0.07540676 -0.03317897 1.149
-0.073076516 -0.033034593 1.1440001
-0.070888035 -0.032947961 1.141
-0.068770438 -0.032890208 1.1390001
-0.066718459 -0.032861333 1.138
-0.064783745 -0.032890208 1.1390001
-0.062735267 -0.032861333 1.138
-0.060690299 -0.032832459 1.1370001
-0.0585972 -0.032774705 1.1350001
-0.056560971 -0.032745827 1.1340001
-0.054480128 -0.032688074 1.1320001
-0.052638166 -0.032774705 1.1350001
-0.05069644 -0.03280358 1.136
-0.04883698 -0.032890208 1.1390001
-0.04688476 -0.032919087 1.1400001
-0.044968415 -0.032976836 1.1420001
-0.043007448 -0.033005714 1.143
-0.040971223 -0.032976836 1.1420001
-0.0389385 -0.032947961 1.141
-0.037006408 -0.033005714 1.143
-0.035097938 -0.033092342 1.146
-0.033236727 -0.033236727 1.151
-0.03130376 -0.033323355 1.154
-0.029385667 -0.033438861 1.1580001
-0.02740632 -0.033496615 1.1600001
-0.025398096 -0.033525489 1.161
-0.023426628 -0.033612121 1.164
-0.021426281 -0.03366987 1.166
-0.019418936 -0.033727624 1.1680001
-0.017389713 -0.033756498 1.169
-0.015396367 -0.033872008 1.1730001
-0.013411771 -0.034045264 1.179
-0.094280541 -0.032117549 1.184
-0.091663294 -0.03192766 1.177
-0.089146666 -0.031764902 1.171
-0.086725421 -0.031629272 1.166
-0.084249057 -0.031466518 1.1600001
-0.08200632 -0.031385135 1.1570001
-0.079774089 -0.03130376 1.154
-0.077484988 -0.031195253 1.1500001
-0.075209871 -0.031086747 1.146
-0.072948761 -0.030978244 1.1420001
-0.070888035 -0.030951116 1.141
-0.068710059 -0.030869735 1.138
-0.066659838 -0.030842612 1.1370001
-0.064613111 -0.030815482 1.136
-0.062625013 -0.030815482 1.136
-0.060583547 -0.030788362 1.1350001
-0.058493938 -0.030734105 1.133
-0.056511097 -0.030734105 1.133
-0.054480128 -0.030706981 1.1320001
-0.052545402 -0.030734105 1.133
-0.050517935 -0.030706981 1.1320001
-0.048622593 -0.030761233 1.1340001
-0.046720251 -0.030815482 1.136
-0.044810906 -0.030869735 1.138
-0.042894568 -0.030923992 1.1400001
-0.040899474 -0.030923992 1.1400001
-0.038904376 -0.030923992 1.1400001
-0.037006408 -0.031005366 1.143
-0.035036687 -0.031032493 1.1440001
-0.03317897 -0.031168127 1.149
-0.031276628 -0.031276628 1.153
-0.029360289 -0.031385135 1.1570001
-0.027335443 -0.031385135 1.1570001
-0.025332471 -0.031412262 1.1580001
-0.02336625 -0.031493641 1.161
-0.021389529 -0.03157502 1.164
-0.019385682 -0.031629272 1.166
-0.017359961 -0.031656399 1.1670001
-0.015396367 -0.031819157 1.1730001
-0.091896929 -0.029943943 1.1800001
-0.089375049 -0.029791685 1.174
-0.086799808 -0.029614052 1.1670001
-0.084394321 -0.02948717 1.1620001
-0.082077213 -0.029385667 1.1580001
-0.079704963 -0.029258784 1.153
-0.077484988 -0.029182656 1.1500001
-0.075209871 -0.029081151 1.146
-0.073012643 -0.029005021 1.143
-0.071012296 -0.029005021 1.143
-0.068891197 -0.028954269 1.141
-0.066835724 -0.028928893 1.1400001
-0.064669997 -0.028852766 1.1370001
-0.062625013 -0.028827388 1.136
-0.060636923 -0.028827388 1.136
-0.0585972 -0.028802015 1.1350001
-0.056560971 -0.028776636 1.1340001
-0.054576378 -0.028776636 1.1340001
-0.052591786 -0.028776636 1.1340001
-0.05060719 -0.028776636 1.1340001
-0.048622593 -0.028776636 1.1340001
-0.046720251 -0.028827388 1.136
-0.044850286 -0.028903518 1.1390001
-0.04293219 -0.028954269 1.141
-0.040935345 -0.028954269 1.141
-0.038972627 -0.028979648 1.1420001
-0.037071165 -0.029055774 1.1450001
-0.035128571 -0.029106526 1.1470001
-0.033236727 -0.029208032 1.151
-0.03130376 -0.029284159 1.154
-0.02941104 -0.02941104 1.159
-0.02740632 -0.029436419 1.1600001
-0.025398096 -0.029461792 1.161
-0.023406504 -0.029512549 1.1630001
-0.021426281 -0.029588673 1.166
-0.019418936 -0.029639428 1.1680001
-0.017404588 -0.02969018 1.1700001
-0.015461996 -0.029893192 1.1780001
-0.091896929 -0.027878843 1.1800001
-0.089298934 -0.027713461 1.1730001
-0.086799808 -0.027571702 1.1670001
-0.084466949 -0.027477199 1.1630001
-0.08200632 -0.027335443 1.1570001
-0.079566702 -0.027193684 1.151
-0.077282853 -0.027099181 1.1470001
-0.075078614 -0.027028302 1.1440001
-0.072948761 -0.02698105 1.1420001
-0.070888035 -0.026957422 1.141
-0.068830818 -0.026933799 1.1400001
-0.066718459 -0.026886543 1.138
-0.064613111 -0.026839292 1.136
-0.06251476 -0.026792042 1.1340001
-0.060476784 -0.026768412 1.133
-0.058493938 -0.026768412 1.133
-0.056511097 -0.026768412 1.133
-0.054528251 -0.026768412 1.133
-0.052545402 -0.026768412 1.133
-0.050517935 -0.02674479 1.1320001
-0.048579715 -0.026768412 1.133
-0.046637997 -0.026792042 1.1340001
-0.044771533 -0.026862919 1.1370001
-0.042856939 -0.026910173 1.1390001
-0.040935345 -0.026957422 1.141
-0.039040878 -0.027028302 1.1440001
-0.037103537 -0.027075553 1.146
-0.035159193 -0.027122805 1.148
-0.033207852 -0.02717006 1.1500001
-0.031276628 -0.027240936 1.153
-0.029360289 -0.027335443 1.1570001
-0.027382694 -0.027382694 1.159
-0.025376223 -0.02740632 1.1600001
-0.023386378 -0.027453573 1.1620001
-0.021407908 -0.027524451 1.1650001
-0.019418936 -0.02759533 1.1680001
-0.017419463 -0.027666207 1.171
-0.015501373 -0.027902471 1.1810001
-0.089679569 -0.025769992 1.1780001
-0.087022945 -0.025594983 1.1700001
-0.084612206 -0.025485603 1.1650001
-0.08221896 -0.025376223 1.1600001
-0.079843223 -0.025266843 1.1550001
-0.077417605 -0.025135584 1.149
-0.075144246 -0.025048083 1.1450001
-0.072948761 -0.024982452 1.1420001
-0.070888035 -0.024960577 1.141
-0.068830818 -0.024938703 1.1400001
-0.066718459 -0.024894949 1.138
-0.064669997 -0.024873074 1.1370001
-0.06251476 -0.024807446 1.1340001
-0.060530167 -0.024807446 1.1340001
-0.058545571 -0.024807446 1.1340001
-0.056660727 -0.024851197 1.136
-0.054672632 -0.024851197 1.136
-0.052684534 -0.024851197 1.136
-0.050651819 -0.024829322 1.1350001
-0.048708346 -0.024851197 1.136
-0.046761379 -0.024873074 1.1370001
-0.044889662 -0.024938703 1.1400001
-0.042969819 -0.024982452 1.1420001
-0.041007098 -0.025004329 1.143
-0.039143261 -0.025091834 1.1470001
-0.037233043 -0.025157463 1.1500001
-0.035312325 -0.025223089 1.153
-0.033323355 -0.025244966 1.154
-0.031385135 -0.025310595 1.1570001
-0.029436419 -0.025376223 1.1600001
-0.027477199 -0.025441851 1.1630001
-0.025485603 -0.025485603 1.1650001
-0.023487007 -0.025529355 1.1670001
-0.021481408 -0.025573106 1.169
-0.019485438 -0.025638735 1.1720001
-0.017493842 -0.025726238 1.176
