# .PCD v0.7 - Point Cloud Data file format
VERSION 0.7
FIELDS x y z
SIZE 4 4 4
TYPE F F F
COUNT 1 1 1
WIDTH 1419
HEIGHT 1
VIEWPOINT 0 0 0 1 0 0 0
POINTS 1419
DATA ascii
-0.10251994 -0.078158766 1.1600001
-0.10014332 -0.077889249 1.156
-0.097950466 -0.07775449 1.154
-0.095764615 -0.077619739 1.1520001
-0.093585767 -0.077484988 1.1500001
-0.091493532 -0.077417605 1.149
-0.08948268 -0.077417605 1.149
-0.087547973 -0.077484988 1.1500001
-0.085460991 -0.077417605 1.149
-0.08337751 -0.077350229 1.148
-0.081297539 -0.077282853 1.1470001
-0.07922107 -0.07721547 1.146
-0.07721547 -0.07721547 1.146
-0.075209871 -0.07721547 1.146
-0.073268153 -0.077282853 1.1470001
-0.07126081 -0.077282853 1.1470001
-0.069313832 -0.077350229 1.148
-0.067246117 -0.077282853 1.1470001
-0.065295644 -0.077350229 1.148
-0.063286543 -0.077350229 1.148
-0.061330829 -0.077417605 1.149
-0.059371613 -0.077484988 1.1500001
-0.057309136 -0.077417605 1.149
-0.055346418 -0.077484988 1.1500001
-0.053287443 -0.077417605 1.149
-0.051321223 -0.077484988 1.1500001
-0.049351502 -0.077552356 1.151
-0.047378283 -0.077619739 1.1520001
-0.045362186 -0.077619739 1.1520001
-0.043346088 -0.077619739 1.1520001
-0.041437622 -0.077821873 1.1550001
-0.039518654 -0.078024015 1.1580001
-0.037718695 -0.078495659 1.1650001
-0.035802349 -0.078765169 1.169
-0.033958632 -0.079236813 1.176
-0.03203617 -0.079573713 1.1810001
-0.030045444 -0.07977584 1.184
-0.028044224 -0.079977974 1.187
-0.025988754 -0.080045357 1.1880001
-0.12328993 -0.077703744 1.184
-0.12172974 -0.078031883 1.189
-0.11914574 -0.077703744 1.184
-0.1172714 -0.077835001 1.1860001
-0.11471016 -0.077506863 1.1810001
-0.11264332 -0.077506863 1.1810001
-0.1101083 -0.077178709 1.176
-0.10777457 -0.076981835 1.1730001
-0.10527107 -0.076653697 1.1680001
-0.10260832 -0.076194294 1.161
-0.10022996 -0.07593178 1.1570001
-0.097950466 -0.075734898 1.154
-0.095847733 -0.075669266 1.153
-0.093585767 -0.075472392 1.1500001
-0.0914139 -0.075341128 1.148
-0.089404799 -0.075341128 1.148
-0.087471835 -0.07540676 1.149
-0.085460991 -0.07540676 1.149
-0.083450146 -0.07540676 1.149
-0.081368417 -0.075341128 1.148
-0.079359323 -0.075341128 1.148
-0.077350229 -0.075341128 1.148
-0.075341128 -0.075341128 1.148
-0.073459789 -0.075472392 1.1500001
-0.071447194 -0.075472392 1.1500001
-0.06949497 -0.075538017 1.151
-0.067421995 -0.075472392 1.1500001
-0.065352522 -0.07540676 1.149
-0.063341677 -0.07540676 1.149
-0.061384212 -0.075472392 1.1500001
-0.059371613 -0.075472392 1.1500001
-0.057309136 -0.07540676 1.149
-0.055346418 -0.075472392 1.1500001
-0.053333819 -0.075472392 1.1500001
-0.051365849 -0.075538017 1.151
-0.049437255 -0.075669266 1.153
-0.047501665 -0.075800531 1.1550001
-0.045401558 -0.075669266 1.153
-0.043421339 -0.075734898 1.154
-0.041437622 -0.075800531 1.1550001
-0.039586905 -0.076128669 1.1600001
-0.037718695 -0.076456808 1.1650001
-0.035924856 -0.076981835 1.1730001
-0.033987515 -0.077244341 1.177
-0.032117549 -0.077703744 1.184
-0.030096203 -0.077835001 1.1860001
-0.028091477 -0.078031883 1.189
-0.026010627 -0.078031883 1.189
-0.12464363 -0.07646206 1.197
-0.12183212 -0.076014914 1.1900001
-0.11934701 -0.075759403 1.1860001
-0.11707364 -0.075631641 1.184
-0.11451589 -0.075312249 1.179
-0.11235716 -0.075248376 1.1780001
-0.10992105 -0.074992865 1.174
-0.10768269 -0.07486511 1.1720001
-0.10527107 -0.0746096 1.1680001
-0.1026967 -0.074226327 1.1620001
-0.10014332 -0.073843054 1.156
-0.097865589 -0.073651418 1.153
-0.095764615 -0.073587552 1.1520001
-0.093504377 -0.073395915 1.149
-0.0914139 -0.073332027 1.148
-0.089326933 -0.073268153 1.1470001
-0.087395705 -0.073332027 1.148
-0.085386612 -0.073332027 1.148
-0.08337751 -0.073332027 1.148
-0.081297539 -0.073268153 1.1470001
-0.079290196 -0.073268153 1.1470001
-0.077282853 -0.073268153 1.1470001
-0.075275503 -0.073268153 1.1470001
-0.073332027 -0.073332027 1.148
-0.071385063 -0.073395915 1.149
-0.06949497 -0.073523663 1.151
-0.067363366 -0.073395915 1.149
-0.065238774 -0.073268153 1.1470001
-0.063286543 -0.073332027 1.148
-0.061277449 -0.073332027 1.148
-0.059371613 -0.073459789 1.1500001
-0.057259254 -0.073332027 1.148
-0.055250157 -0.073332027 1.148
-0.05319469 -0.073268153 1.1470001
-0.051276594 -0.073395915 1.149
-0.049351502 -0.073523663 1.151
-0.047419406 -0.073651418 1.153
-0.045401558 -0.073651418 1.153
-0.043458972 -0.073779188 1.1550001
-0.041473497 -0.073843054 1.156
-0.039586905 -0.074098572 1.1600001
-0.037653942 -0.074290209 1.1630001
-0.035832979 -0.074737348 1.1700001
-0.033958632 -0.075120613 1.176
-0.032090422 -0.075567767 1.1830001
-0.030020073 -0.075567767 1.1830001
-0.027973346 -0.075631641 1.184
-0.025901247 -0.075631641 1.184
-0.11974952 -0.073932312 1.1900001
-0.11697477 -0.073497415 1.1830001
-0.11461303 -0.073311031 1.1800001
-0.11235716 -0.073186778 1.1780001
-0.11001468 -0.073000394 1.1750001
-0.10786644 -0.072938263 1.174
-0.10545133 -0.072689757 1.1700001
-0.10296184 -0.072379112 1.1650001
-0.10040321 -0.072006345 1.159
-0.098205104 -0.071882084 1.1570001
-0.096097127 -0.071819961 1.156
-0.093911275 -0.071695708 1.154
-0.091573164 -0.071447194 1.1500001
-0.089560568 -0.071447194 1.1500001
-0.087471835 -0.071385063 1.149
-0.085460991 -0.071385063 1.149
-0.08337751 -0.071322933 1.148
-0.081439294 -0.071385063 1.149
-0.079497583 -0.071447194 1.1500001
-0.077484988 -0.071447194 1.1500001
-0.07540676 -0.071385063 1.149
-0.073332027 -0.071322933 1.148
-0.071385063 -0.071385063 1.149
-0.06955535 -0.071571454 1.1520001
-0.067421995 -0.071447194 1.1500001
-0.065352522 -0.071385063 1.149
-0.063341677 -0.071385063 1.149
-0.06149096 -0.071571454 1.1520001
-0.059526492 -0.07163357 1.153
-0.057408892 -0.071509317 1.151
-0.055298291 -0.071385063 1.149
-0.05319469 -0.07126081 1.1470001
-0.051276594 -0.071385063 1.149
-0.04939438 -0.071571454 1.1520001
-0.047501665 -0.071757831 1.1550001
-0.045480315 -0.071757831 1.1550001
-0.043496594 -0.071819961 1.156
-0.041509375 -0.071882084 1.1570001
-0.03965516 -0.072192729 1.1620001
-0.037686314 -0.072316982 1.164
-0.035771728 -0.072565503 1.1680001
-0.03384313 -0.07281401 1.1720001
-0.032009043 -0.073311031 1.1800001
-0.029969322 -0.073373161 1.1810001
-0.027973346 -0.073559545 1.184
-0.025923124 -0.073621668 1.1850001
-0.11954826 -0.07172896 1.1880001
-0.11677701 -0.071306311 1.1810001
-0.11432163 -0.0710648 1.177
-0.11207103 -0.070944041 1.1750001
-0.10973379 -0.07076291 1.1720001
-0.1075908 -0.07070253 1.171
-0.1053612 -0.070581771 1.169
-0.1031386 -0.07046102 1.1670001
-0.10083635 -0.070279881 1.164
-0.098629497 -0.07015913 1.1620001
-0.096346512 -0.069977991 1.159
-0.094074033 -0.06979686 1.156
-0.091812037 -0.069615722 1.153
-0.089716323 -0.06955535 1.1520001
-0.087624095 -0.06949497 1.151
-0.085609742 -0.06949497 1.151
-0.083450146 -0.069374219 1.149
-0.081368417 -0.069313832 1.148
-0.079359323 -0.069313832 1.148
-0.077350229 -0.069313832 1.148
-0.075341128 -0.069313832 1.148
-0.073268153 -0.06925346 1.1470001
-0.07126081 -0.06925346 1.1470001
-0.069313832 -0.069313832 1.148
-0.067304738 -0.069313832 1.148
-0.065352522 -0.069374219 1.149
-0.063396804 -0.069434598 1.1500001
-0.061437581 -0.06949497 1.151
-0.059474863 -0.06955535 1.1520001
-0.057359014 -0.069434598 1.1500001
-0.055250157 -0.069313832 1.148
-0.053148311 -0.069193088 1.146
-0.051231965 -0.069313832 1.148
-0.049351502 -0.06949497 1.151
-0.047501665 -0.069736488 1.1550001
-0.045559071 -0.069857247 1.1570001
-0.043534223 -0.069857247 1.1570001
-0.041509375 -0.069857247 1.1570001
-0.039586905 -0.070038378 1.1600001
-0.037653942 -0.070219509 1.1630001
-0.035741094 -0.07046102 1.1670001
-0.033785377 -0.070642151 1.1700001
-0.031900536 -0.071004413 1.176
-0.029969322 -0.071306311 1.1810001
-0.027996972 -0.071547821 1.1850001
-0.025988754 -0.07172896 1.1880001
-0.11995077 -0.06988436 1.192
-0.1172714 -0.069532603 1.1860001
-0.11461303 -0.069180831 1.1800001
-0.11226178 -0.069004945 1.177
-0.10982742 -0.068770438 1.1730001
-0.10749893 -0.06859456 1.1700001
-0.1053612 -0.068535931 1.169
-0.10331535 -0.068535931 1.169
-0.10135613 -0.06859456 1.1700001
-0.099138781 -0.068477303 1.1680001
-0.096845292 -0.068301417 1.1650001
-0.094480924 -0.068066902 1.161
-0.092210196 -0.067891024 1.1580001
-0.09010572 -0.067832395 1.1570001
-0.087852478 -0.06765651 1.154
-0.085832886 -0.06765651 1.154
-0.083668031 -0.067539252 1.1520001
-0.081510179 -0.067421995 1.1500001
-0.079497583 -0.067421995 1.1500001
-0.077484988 -0.067421995 1.1500001
-0.075472392 -0.067421995 1.1500001
-0.073395915 -0.067363366 1.149
-0.071385063 -0.067363366 1.149
-0.069434598 -0.067421995 1.1500001
-0.067480624 -0.067480624 1.151
-0.065466277 -0.067480624 1.151
-0.063451931 -0.067480624 1.151
-0.061544336 -0.067597881 1.153
-0.059578124 -0.06765651 1.154
-0.057508644 -0.067597881 1.153
-0.055442672 -0.067539252 1.1520001
-0.053380195 -0.067480624 1.151
-0.051410478 -0.067539252 1.1520001
-0.049523011 -0.067715146 1.1550001
-0.047666173 -0.067949645 1.159
-0.045755953 -0.068125531 1.1620001
-0.043647103 -0.068008281 1.1600001
-0.041617006 -0.068008281 1.1600001
-0.039689288 -0.06818416 1.1630001
-0.037718695 -0.068301417 1.1650001
-0.035741094 -0.068418667 1.1670001
-0.033785377 -0.06859456 1.1700001
-0.031954788 -0.069063574 1.1780001
-0.030045444 -0.069415346 1.184
-0.11964888 -0.067627631 1.189
-0.11717252 -0.06740012 1.1850001
-0.11441877 -0.067001984 1.1780001
-0.11197564 -0.066774465 1.174
-0.10954653 -0.066546954 1.1700001
-0.10731517 -0.066433199 1.1680001
-0.10518094 -0.066376321 1.1670001
-0.10305021 -0.066319443 1.166
-0.10092299 -0.066262566 1.1650001
-0.098714389 -0.066148818 1.1630001
-0.096346512 -0.065921299 1.159
-0.093992658 -0.065693788 1.1550001
-0.091891676 -0.06563691 1.154
-0.089794196 -0.065580033 1.153
-0.087776348 -0.065580033 1.153
-0.0857585 -0.065580033 1.153
-0.083740652 -0.065580033 1.153
-0.081510179 -0.065409407 1.1500001
-0.079428449 -0.065352522 1.149
-0.077350229 -0.065295644 1.148
-0.07540676 -0.065352522 1.149
-0.073332027 -0.065295644 1.148
-0.071322933 -0.065295644 1.148
-0.069374219 -0.065352522 1.149
-0.067363366 -0.065352522 1.149
-0.065409407 -0.065409407 1.1500001
-0.063396804 -0.065409407 1.1500001
-0.061437581 -0.065466277 1.151
-0.059474863 -0.065523155 1.1520001
-0.057458766 -0.065523155 1.1520001
-0.055394541 -0.065466277 1.151
-0.053380195 -0.065466277 1.151
-0.051410478 -0.065523155 1.1520001
-0.049523011 -0.065693788 1.1550001
-0.047583915 -0.065807544 1.1570001
-0.045677204 -0.065978184 1.1600001
-0.043609474 -0.065921299 1.159
-0.041652881 -0.066035055 1.161
-0.03965516 -0.06609194 1.1620001
-0.037653942 -0.066148818 1.1630001
-0.035710469 -0.066319443 1.166
-0.033756498 -0.066490076 1.169
-0.031900536 -0.066888221 1.176
-0.030020073 -0.067286365 1.1830001
-0.11985015 -0.065657042 1.1910001
-0.11737027 -0.065436527 1.187
-0.11461303 -0.065050632 1.1800001
-0.11207103 -0.06477499 1.1750001
-0.10973379 -0.064609617 1.1720001
-0.10749893 -0.064499363 1.1700001
-0.10518094 -0.064333975 1.1670001
-0.10287345 -0.064168587 1.164
-0.10074973 -0.064113468 1.1630001
-0.098629497 -0.064058334 1.1620001
-0.096429646 -0.06394808 1.1600001
-0.094074033 -0.063727573 1.156
-0.091891676 -0.063617311 1.154
-0.089872077 -0.063617311 1.154
-0.087928616 -0.063672446 1.1550001
-0.085832886 -0.063617311 1.154
-0.083740652 -0.063562185 1.153
-0.081651933 -0.063507058 1.1520001
-0.079566702 -0.063451931 1.151
-0.077484988 -0.063396804 1.1500001
-0.075538017 -0.063451931 1.151
-0.073459789 -0.063396804 1.1500001
-0.071509317 -0.063451931 1.151
-0.06949497 -0.063451931 1.151
-0.067480624 -0.063451931 1.151
-0.065466277 -0.063451931 1.151
-0.063451931 -0.063451931 1.151
-0.061544336 -0.063562185 1.153
-0.059578124 -0.063617311 1.154
-0.057558522 -0.063617311 1.154
-0.055490796 -0.063562185 1.153
-0.053426575 -0.063507058 1.1520001
-0.051499732 -0.063617311 1.154
-0.049523011 -0.063672446 1.1550001
-0.047583915 -0.063782699 1.1570001
-0.045637824 -0.063892953 1.159
-0.043684728 -0.064003207 1.161
-0.041760512 -0.064168587 1.164
-0.039723411 -0.064168587 1.164
-0.037686314 -0.064168587 1.164
-0.035710469 -0.064278841 1.166
-0.033785377 -0.064499363 1.1700001
-0.031873412 -0.06477499 1.1750001
-0.029943943 -0.065050632 1.1800001
-0.11974952 -0.063519314 1.1900001
-0.1172714 -0.063305803 1.1860001
-0.11441877 -0.062878788 1.1780001
-0.11188027 -0.062611893 1.1730001
-0.10935927 -0.062345009 1.1680001
-0.10722329 -0.062291626 1.1670001
-0.10482043 -0.062078118 1.1630001
-0.10260832 -0.061971355 1.161
-0.10048985 -0.061917983 1.1600001
-0.09845975 -0.061917983 1.1600001
-0.096263394 -0.061811231 1.1580001
-0.094074033 -0.061704468 1.156
-0.091971308 -0.061651092 1.1550001
-0.089794196 -0.061544336 1.153
-0.087852478 -0.06159772 1.154
-0.0857585 -0.061544336 1.153
-0.083740652 -0.061544336 1.153
-0.081581056 -0.061437581 1.151
-0.079566702 -0.061437581 1.151
-0.077350229 -0.061277449 1.148
-0.075275503 -0.061224073 1.1470001
-0.073204279 -0.061170693 1.146
-0.07119868 -0.061170693 1.146
-0.06925346 -0.061224073 1.1470001
-0.067304738 -0.061277449 1.148
-0.065352522 -0.061330829 1.149
-0.063451931 -0.061437581 1.151
-0.06149096 -0.06149096 1.1520001
-0.059526492 -0.061544336 1.153
-0.057508644 -0.061544336 1.153
-0.055490796 -0.061544336 1.153
-0.053472951 -0.061544336 1.153
-0.051499732 -0.06159772 1.154
-0.049523011 -0.061651092 1.1550001
-0.047542788 -0.061704468 1.156
-0.045598447 -0.061811231 1.1580001
-0.043609474 -0.061864607 1.159
-0.041688759 -0.062024739 1.1620001
-0.039689288 -0.062078118 1.1630001
-0.037686314 -0.062131494 1.164
-0.035710469 -0.062238246 1.166
-0.033785377 -0.062451757 1.1700001
-0.031819157 -0.062611893 1.1730001
-0.029867815 -0.062825404 1.177
-0.11746915 -0.061333455 1.1880001
-0.11451589 -0.060868807 1.179
-0.11207103 -0.060662299 1.1750001
-0.1094529 -0.06035253 1.169
-0.10722329 -0.06024928 1.1670001
-0.10482043 -0.060042769 1.1630001
-0.1026967 -0.059991144 1.1620001
-0.10057647 -0.059939511 1.161
-0.098629497 -0.059991144 1.1620001
-0.096429646 -0.059887886 1.1600001
-0.094318166 -0.059836257 1.159
-0.092130564 -0.059733 1.1570001
-0.089949958 -0.05962975 1.1550001
-0.087928616 -0.05962975 1.1550001
-0.085832886 -0.059578124 1.154
-0.083813287 -0.059578124 1.154
-0.081651933 -0.059474863 1.1520001
-0.079566702 -0.059423238 1.151
-0.077417605 -0.05931998 1.149
-0.075341128 -0.059268355 1.148
-0.073268153 -0.059216727 1.1470001
-0.07126081 -0.059216727 1.1470001
-0.069313832 -0.059268355 1.148
-0.067363366 -0.05931998 1.149
-0.065352522 -0.05931998 1.149
-0.063507058 -0.059474863 1.1520001
-0.061544336 -0.059526492 1.153
-0.059578124 -0.059578124 1.154
-0.057558522 -0.059578124 1.154
-0.055587053 -0.05962975 1.1550001
-0.053565707 -0.05962975 1.1550001
-0.051544361 -0.05962975 1.1550001
-0.049523011 -0.05962975 1.1550001
-0.047583915 -0.059733 1.1570001
-0.045637824 -0.059836257 1.159
-0.043684728 -0.059939511 1.161
-0.041760512 -0.060094394 1.164
-0.039791662 -0.060197648 1.166
-0.037783444 -0.06024928 1.1670001
-0.035802349 -0.06035253 1.169
-0.03384313 -0.060507413 1.1720001
-0.031846285 -0.060610667 1.174
-0.029918566 -0.060868807 1.179
-0.11746915 -0.059254356 1.1880001
-0.11471016 -0.058905218 1.1810001
-0.1121664 -0.058655821 1.176
-0.10954653 -0.058356561 1.1700001
-0.10713141 -0.058157045 1.166
-0.10491055 -0.058057293 1.164
-0.10278508 -0.058007423 1.1630001
-0.1006631 -0.057957541 1.1620001
-0.098629497 -0.057957541 1.1620001
-0.096512765 -0.057907663 1.161
-0.094399549 -0.057857785 1.1600001
-0.092210196 -0.057758033 1.1580001
-0.090027831 -0.057658274 1.156
-0.087852478 -0.057558522 1.154
-0.0857585 -0.057508644 1.153
-0.083813287 -0.057558522 1.154
-0.081722803 -0.057508644 1.153
-0.079497583 -0.057359014 1.1500001
-0.077417605 -0.057309136 1.149
-0.075275503 -0.057209384 1.1470001
-0.073140398 -0.057109628 1.1450001
-0.071074426 -0.057059746 1.1440001
-0.069132708 -0.057109628 1.1450001
-0.067246117 -0.057209384 1.1470001
-0.065295644 -0.057259254 1.148
-0.063396804 -0.057359014 1.1500001
-0.06149096 -0.057458766 1.1520001
-0.059578124 -0.057558522 1.154
-0.057608403 -0.057608403 1.1550001
-0.05563518 -0.057658274 1.156
-0.053612083 -0.057658274 1.156
-0.051588982 -0.057658274 1.156
-0.049565885 -0.057658274 1.156
-0.047625046 -0.057758033 1.1580001
-0.045677204 -0.057857785 1.1600001
-0.043722358 -0.057957541 1.1620001
-0.041760512 -0.058057293 1.164
-0.039757539 -0.058107179 1.1650001
-0.037783444 -0.058206931 1.1670001
-0.035741094 -0.058206931 1.1670001
-0.033814255 -0.058406439 1.171
-0.031873412 -0.05860595 1.1750001
-0.030020073 -0.05900497 1.1830001
-0.11717252 -0.057030872 1.1850001
-0.11451589 -0.056742106 1.179
-0.11207103 -0.056549601 1.1750001
-0.10964015 -0.056357086 1.171
-0.10722329 -0.056164581 1.1670001
-0.1050908 -0.056116447 1.166
-0.10278508 -0.055972073 1.1630001
-0.1006631 -0.055923946 1.1620001
-0.09845975 -0.055827688 1.1600001
-0.096346512 -0.055779561 1.159
-0.094236791 -0.055731438 1.1580001
-0.092130564 -0.055683307 1.1570001
-0.090027831 -0.05563518 1.156
-0.087776348 -0.055490796 1.153
-0.085684128 -0.055442672 1.1520001
-0.083668031 -0.055442672 1.1520001
-0.081510179 -0.055346418 1.1500001
-0.079428449 -0.055298291 1.149
-0.077350229 -0.055250157 1.148
-0.075341128 -0.055250157 1.148
-0.073140398 -0.055105783 1.1450001
-0.071074426 -0.055057652 1.1440001
-0.069072329 -0.055057652 1.1440001
-0.067187488 -0.055153906 1.146
-0.065181889 -0.055153906 1.146
-0.063286543 -0.055250157 1.148
-0.061384212 -0.055346418 1.1500001
-0.059474863 -0.055442672 1.1520001
-0.057558522 -0.055538923 1.154
-0.055538923 -0.055538923 1.154
-0.053565707 -0.055587053 1.1550001
-0.051499732 -0.055538923 1.154
-0.049523011 -0.055587053 1.1550001
-0.047542788 -0.05563518 1.156
-0.045598447 -0.055731438 1.1580001
-0.043647103 -0.055827688 1.1600001
-0.041688759 -0.055923946 1.1620001
-0.039689288 -0.055972073 1.1630001
-0.037718695 -0.056068327 1.1650001
-0.035710469 -0.056116447 1.166
-0.033785377 -0.056308966 1.1700001
-0.031846285 -0.056501471 1.174
-0.030045444 -0.056982744 1.184
-0.11737027 -0.055049777 1.187
-0.11461303 -0.054725137 1.1800001
-0.11207103 -0.054493252 1.1750001
-0.10973379 -0.054354116 1.1720001
-0.10740705 -0.054214984 1.169
-0.10518094 -0.054122232 1.1670001
-0.10287345 -0.0539831 1.164
-0.1006631 -0.053890344 1.1620001
-0.09845975 -0.053797591 1.1600001
-0.096263394 -0.053704839 1.1580001
-0.094155408 -0.053658459 1.1570001
-0.092130564 -0.053658459 1.1570001
-0.090027831 -0.053612083 1.156
-0.087776348 -0.053472951 1.153
-0.085609742 -0.053380195 1.151
-0.083668031 -0.053426575 1.1520001
-0.081581056 -0.053380195 1.151
-0.079428449 -0.053287443 1.149
-0.077350229 -0.053241063 1.148
-0.075209871 -0.053148311 1.146
-0.073012643 -0.053009175 1.143
-0.071012296 -0.053009175 1.143
-0.069072329 -0.053055558 1.1440001
-0.067187488 -0.053148311 1.146
-0.065238774 -0.05319469 1.1470001
-0.063286543 -0.053241063 1.148
-0.061384212 -0.053333819 1.1500001
-0.059526492 -0.053472951 1.153
-0.057558522 -0.053519327 1.154
-0.055538923 -0.053519327 1.154
-0.053519327 -0.053519327 1.154
-0.051455103 -0.053472951 1.153
-0.049523011 -0.053565707 1.1550001
-0.047542788 -0.053612083 1.156
-0.045598447 -0.053704839 1.1580001
-0.043609474 -0.053751212 1.159
-0.041617006 -0.053797591 1.1600001
-0.03965516 -0.053890344 1.1620001
-0.037686314 -0.0539831 1.164
-0.035741094 -0.054122232 1.1670001
-0.033814255 -0.054307736 1.171
-0.031900536 -0.054539625 1.176
-0.11737027 -0.052972425 1.187
-0.11432163 -0.052526154 1.177
-0.11178489 -0.05230302 1.1720001
-0.10964015 -0.052258391 1.171
-0.10740705 -0.052169137 1.169
-0.10518094 -0.052079882 1.1670001
-0.10287345 -0.051946003 1.164
-0.10057647 -0.05181212 1.161
-0.098205104 -0.051633611 1.1570001
-0.095930874 -0.051499732 1.154
-0.093829885 -0.051455103 1.153
-0.09173242 -0.051410478 1.1520001
-0.089716323 -0.051410478 1.1520001
-0.087547973 -0.051321223 1.1500001
-0.085460991 -0.051276594 1.149
-0.083522774 -0.051321223 1.1500001
-0.081439294 -0.051276594 1.149
-0.079428449 -0.051276594 1.149
-0.077282853 -0.051187344 1.1470001
-0.075078614 -0.051053457 1.1440001
-0.072821014 -0.050874956 1.1400001
-0.070701659 -0.050785694 1.138
-0.068830818 -0.050874956 1.1400001
-0.067011602 -0.051008828 1.143
-0.065125011 -0.05109809 1.1450001
-0.063286543 -0.051231965 1.148
-0.061330829 -0.051276594 1.149
-0.059423238 -0.051365849 1.151
-0.057408892 -0.051365849 1.151
-0.055442672 -0.051410478 1.1520001
-0.053426575 -0.051410478 1.1520001
-0.051365849 -0.051365849 1.151
-0.049437255 -0.051455103 1.153
-0.047460537 -0.051499732 1.154
-0.045519691 -0.051588982 1.156
-0.043534223 -0.051633611 1.1570001
-0.041581128 -0.051722866 1.159
-0.039621033 -0.05181212 1.161
-0.037686314 -0.051946003 1.164
-0.035771728 -0.052124511 1.1680001
-0.03384313 -0.05230302 1.1720001
-0.031900536 -0.052481528 1.176
-0.11490441 -0.050723568 1.1830001
-0.1121664 -0.050423428 1.176
-0.10973379 -0.05025192 1.1720001
-0.10749893 -0.050166167 1.1700001
-0.1050908 -0.049994655 1.166
-0.10296184 -0.049951781 1.1650001
-0.1006631 -0.04982315 1.1620001
-0.09845975 -0.049737398 1.1600001
-0.096097127 -0.049565885 1.156
-0.093911275 -0.049480133 1.154
-0.091812037 -0.049437255 1.153
-0.089716323 -0.04939438 1.1520001
-0.087624095 -0.049351502 1.151
-0.085609742 -0.049351502 1.151
-0.083595403 -0.049351502 1.151
-0.081651933 -0.04939438 1.1520001
-0.079704963 -0.049437255 1.153
-0.077484988 -0.049308628 1.1500001
-0.075144246 -0.049094241 1.1450001
-0.072757132 -0.04883698 1.1390001
-0.070639528 -0.048751224 1.1370001
-0.068770438 -0.04883698 1.1390001
-0.066952981 -0.048965611 1.1420001
-0.065181889 -0.049137119 1.146
-0.063396804 -0.049308628 1.1500001
-0.06149096 -0.04939438 1.1520001
-0.059474863 -0.04939438 1.1520001
-0.057458766 -0.04939438 1.1520001
-0.055394541 -0.049351502 1.151
-0.053472951 -0.049437255 1.153
-0.051455103 -0.049437255 1.153
-0.049565885 -0.049565885 1.156
-0.047583915 -0.049608767 1.1570001
-0.045637824 -0.049694516 1.159
-0.043647103 -0.049737398 1.1600001
-0.041724637 -0.049866032 1.1630001
-0.039757539 -0.049951781 1.1650001
-0.037783444 -0.050037537 1.1670001
-0.035863601 -0.050209042 1.171
-0.033929758 -0.050380554 1.1750001
-0.032009043 -0.050594937 1.1800001
-0.11490441 -0.048653223 1.1830001
-0.11207103 -0.048324201 1.1750001
-0.10964015 -0.048159692 1.171
-0.10740705 -0.048077438 1.169
-0.10500069 -0.047912937 1.1650001
-0.10287345 -0.047871806 1.164
-0.10057647 -0.047748424 1.161
-0.098289989 -0.047625046 1.1580001
-0.095930874 -0.047460537 1.154
-0.093829885 -0.047419406 1.153
-0.091812037 -0.047419406 1.153
-0.089716323 -0.047378283 1.1520001
-0.087547973 -0.047296029 1.1500001
-0.085460991 -0.047254901 1.149
-0.083522774 -0.047296029 1.1500001
-0.081581056 -0.047337152 1.151
-0.079566702 -0.047337152 1.151
-0.077282853 -0.047172651 1.1470001
-0.074881732 -0.046925887 1.141
-0.072565496 -0.046720251 1.136
-0.070328891 -0.046555743 1.1320001
-0.068408169 -0.046596866 1.133
-0.066542581 -0.046679124 1.1350001
-0.064840622 -0.04688476 1.1400001
-0.063231416 -0.047172651 1.1470001
-0.061437581 -0.047337152 1.151
-0.059423238 -0.047337152 1.151
-0.057309136 -0.047254901 1.149
-0.055298291 -0.047254901 1.149
-0.053380195 -0.047337152 1.151
-0.051365849 -0.047337152 1.151
-0.049437255 -0.047419406 1.153
-0.047460537 -0.047460537 1.154
-0.045598447 -0.047625046 1.1580001
-0.043647103 -0.047707301 1.1600001
-0.041688759 -0.047789551 1.1620001
-0.039723411 -0.047871806 1.164
-0.037751067 -0.04795406 1.166
-0.035832979 -0.048118569 1.1700001
-0.033900883 -0.048283074 1.174
-0.031981915 -0.04848871 1.179
-0.11529293 -0.046740375 1.187
-0.11245254 -0.046425361 1.179
-0.11001468 -0.046267856 1.1750001
-0.10768269 -0.046149723 1.1720001
-0.10527107 -0.045992218 1.1680001
-0.10305021 -0.045913462 1.166
-0.1006631 -0.045755953 1.1620001
-0.09854462 -0.045716573 1.161
-0.096263394 -0.045598447 1.1580001
-0.094155408 -0.045559071 1.1570001
-0.092050932 -0.045519691 1.156
-0.089949958 -0.045480315 1.1550001
-0.087852478 -0.045440938 1.154
-0.0857585 -0.045401558 1.153
-0.083668031 -0.045362186 1.1520001
-0.081651933 -0.045362186 1.1520001
-0.079428449 -0.045244053 1.149
-0.07721547 -0.04512592 1.146
-0.074947365 -0.044968415 1.1420001
-0.072629377 -0.044771533 1.1370001
-0.070453145 -0.044653401 1.1340001
-0.068408169 -0.044614021 1.133
-0.066601202 -0.044732153 1.136
-0.064840622 -0.044889662 1.1400001
-0.063176289 -0.04512592 1.146
-0.06149096 -0.045362186 1.1520001
-0.059474863 -0.045362186 1.1520001
-0.057359014 -0.045283433 1.1500001
-0.055346418 -0.045283433 1.1500001
-0.053380195 -0.045322809 1.151
-0.051365849 -0.045322809 1.151
-0.049437255 -0.045401558 1.153
-0.047501665 -0.045480315 1.1550001
-0.045677204 -0.045677204 1.1600001
-0.043722358 -0.045755953 1.1620001
-0.041760512 -0.045834705 1.164
-0.039791662 -0.045913462 1.166
-0.037848197 -0.046031591 1.169
-0.035955481 -0.046228476 1.174
-0.033987515 -0.046346609 1.177
-0.032090422 -0.04658287 1.1830001
-0.11539006 -0.044700652 1.1880001
-0.11254793 -0.044399638 1.1800001
-0.11020193 -0.044286758 1.177
-0.10777457 -0.044136252 1.1730001
-0.10545133 -0.044023372 1.1700001
-0.1031386 -0.043910492 1.1670001
-0.1006631 -0.043722358 1.1620001
-0.09845975 -0.043647103 1.1600001
-0.096263394 -0.043571852 1.1580001
-0.094074033 -0.043496594 1.156
-0.092050932 -0.043496594 1.156
-0.089949958 -0.043458972 1.1550001
-0.087776348 -0.04338371 1.153
-0.085684128 -0.043346088 1.1520001
-0.083595403 -0.043308459 1.151
-0.081581056 -0.043308459 1.151
-0.079290196 -0.043157954 1.1470001
-0.077080712 -0.043045074 1.1440001
-0.074816108 -0.042894568 1.1400001
-0.072565496 -0.042744059 1.136
-0.070453145 -0.042668805 1.1340001
-0.068468548 -0.042668805 1.1340001
-0.066601202 -0.042744059 1.136
-0.064783745 -0.042856939 1.1390001
-0.062955789 -0.042969819 1.1420001
-0.061224073 -0.043157954 1.1470001
-0.059371613 -0.043270838 1.1500001
-0.057359014 -0.043270838 1.1500001
-0.055346418 -0.043270838 1.1500001
-0.053333819 -0.043270838 1.1500001
-0.051321223 -0.043270838 1.1500001
-0.049351502 -0.043308459 1.151
-0.047460537 -0.043421339 1.154
-0.045598447 -0.043571852 1.1580001
-0.043647103 -0.043647103 1.1600001
-0.041688759 -0.043722358 1.1620001
-0.039723411 -0.043797608 1.164
-0.037815824 -0.043948118 1.1680001
-0.035924856 -0.044136252 1.1730001
-0.033987515 -0.044286758 1.177
-0.032117549 -0.044550147 1.184
-0.11587571 -0.042800937 1.1930001
-0.11302482 -0.042513922 1.1850001
-0.11057646 -0.04237042 1.1810001
-0.10814209 -0.042226911 1.177
-0.10581185 -0.04211928 1.174
-0.10340373 -0.04197577 1.1700001
-0.10109624 -0.041868143 1.1670001
-0.098799258 -0.041760512 1.164
-0.096595906 -0.041688759 1.1620001
-0.094399549 -0.041617006 1.1600001
-0.092210196 -0.041545253 1.1580001
-0.09010572 -0.041509375 1.1570001
-0.087928616 -0.041437622 1.1550001
-0.085981637 -0.041473497 1.156
-0.083958536 -0.041473497 1.156
-0.081722803 -0.041365866 1.153
-0.079428449 -0.04122236 1.149
-0.077282853 -0.041150611 1.1470001
-0.075209871 -0.041114729 1.146
-0.073012643 -0.041007098 1.143
-0.070888035 -0.040935345 1.141
-0.068951569 -0.040971223 1.1420001
-0.067070231 -0.041042976 1.1440001
-0.065125011 -0.041078854 1.1450001
-0.06312117 -0.041078854 1.1450001
-0.061224073 -0.041150611 1.1470001
-0.05931998 -0.04122236 1.149
-0.057458766 -0.041329991 1.1520001
-0.055442672 -0.041329991 1.1520001
-0.053426575 -0.041329991 1.1520001
-0.051410478 -0.041329991 1.1520001
-0.049480133 -0.041401744 1.154
-0.047583915 -0.041509375 1.1570001
-0.045677204 -0.041617006 1.1600001
-0.043759983 -0.041724637 1.1630001
-0.04179639 -0.04179639 1.1650001
-0.039825793 -0.041868143 1.1670001
-0.037880573 -0.04197577 1.1700001
-0.036016732 -0.042191029 1.176
-0.034131892 -0.042406291 1.182
-0.11331096 -0.040542454 1.1880001
-0.11057646 -0.040303569 1.1810001
-0.1080502 -0.040132929 1.176
-0.10572172 -0.040030558 1.1730001
-0.10340373 -0.039928176 1.1700001
-0.10109624 -0.039825793 1.1670001
-0.098714389 -0.039689288 1.1630001
-0.096512765 -0.039621033 1.161
-0.094318166 -0.039552778 1.159
-0.092210196 -0.039518654 1.1580001
-0.089949958 -0.039416272 1.1550001
-0.087852478 -0.039382145 1.154
-0.085832886 -0.039382145 1.154
-0.083813287 -0.039382145 1.154
-0.081581056 -0.039279766 1.151
-0.079428449 -0.039211512 1.149
-0.077350229 -0.039177384 1.148
-0.075209871 -0.039109133 1.146
-0.073076516 -0.039040878 1.1440001
-0.071012296 -0.039006751 1.143
-0.069132708 -0.03907501 1.1450001
-0.067128859 -0.03907501 1.1450001
-0.065125011 -0.03907501 1.1450001
-0.06312117 -0.03907501 1.1450001
-0.061224073 -0.039143261 1.1470001
-0.059371613 -0.039245639 1.1500001
-0.057408892 -0.039279766 1.151
-0.055346418 -0.039245639 1.1500001
-0.053333819 -0.039245639 1.1500001
-0.051365849 -0.039279766 1.151
-0.049480133 -0.039382145 1.154
-0.047542788 -0.0394504 1.156
-0.045637824 -0.039552778 1.159
-0.043684728 -0.039621033 1.161
-0.041724637 -0.039689288 1.1630001
-0.039825793 -0.039825793 1.1670001
-0.03791295 -0.039962295 1.171
-0.036047358 -0.04016706 1.177
-0.034189645 -0.040405948 1.184
-0.11369248 -0.038592856 1.192
-0.11085734 -0.038333844 1.184
-0.10832585 -0.038171962 1.179
-0.1059921 -0.038074832 1.176
-0.10366887 -0.037977707 1.1730001
-0.1012695 -0.037848197 1.169
-0.098884135 -0.037718695 1.1650001
-0.096762158 -0.037686314 1.164
-0.0945623 -0.037621565 1.1620001
-0.092369452 -0.037556808 1.1600001
-0.09010572 -0.037459679 1.1570001
-0.088004731 -0.037427302 1.156
-0.085907266 -0.03739493 1.1550001
-0.083740652 -0.037330169 1.153
-0.081510179 -0.037233043 1.1500001
-0.079359323 -0.03716829 1.148
-0.077350229 -0.03716829 1.148
-0.075275503 -0.037135914 1.1470001
-0.073204279 -0.037103537 1.146
-0.071074426 -0.037038784 1.1440001
-0.069132708 -0.037071165 1.1450001
-0.067187488 -0.037103537 1.146
-0.065238774 -0.037135914 1.1470001
-0.063286543 -0.03716829 1.148
-0.061330829 -0.037200667 1.149
-0.059474863 -0.0372978 1.1520001
-0.057458766 -0.0372978 1.1520001
-0.055442672 -0.0372978 1.1520001
-0.053426575 -0.0372978 1.1520001
-0.051455103 -0.037330169 1.153
-0.049565885 -0.037427302 1.156
-0.047583915 -0.037459679 1.1570001
-0.045755953 -0.037621565 1.1620001
-0.043797608 -0.037686314 1.164
-0.041868143 -0.037783444 1.1670001
-0.039894044 -0.037848197 1.169
-0.038010079 -0.038010079 1.174
-0.036108613 -0.038171962 1.179
-0.034276277 -0.038430978 1.187
-0.11369248 -0.036506757 1.192
-0.11076371 -0.036231119 1.1830001
-0.10814209 -0.036047358 1.177
-0.10581185 -0.035955481 1.174
-0.10349211 -0.035863601 1.171
-0.10118288 -0.035771728 1.1680001
-0.098884135 -0.035679843 1.1650001
-0.096762158 -0.035649218 1.164
-0.094480924 -0.035557337 1.161
-0.092210196 -0.03546546 1.1580001
-0.089872077 -0.035342954 1.154
-0.087776348 -0.035312325 1.153
-0.085609742 -0.03525107 1.151
-0.08337751 -0.035159193 1.148
-0.081155792 -0.035067316 1.1450001
-0.079082809 -0.035036687 1.1440001
-0.077080712 -0.035036687 1.1440001
-0.074947365 -0.034975436 1.1420001
-0.072821014 -0.034914184 1.1400001
-0.070763782 -0.034883555 1.1390001
-0.068830818 -0.034914184 1.1400001
-0.066894345 -0.034944806 1.141
-0.065011255 -0.035006061 1.143
-0.06312117 -0.035067316 1.1450001
-0.061277449 -0.035159193 1.148
-0.059371613 -0.035220448 1.1500001
-0.057359014 -0.035220448 1.1500001
-0.055346418 -0.035220448 1.1500001
-0.053333819 -0.035220448 1.1500001
-0.051365849 -0.03525107 1.151
-0.049480133 -0.035342954 1.154
-0.047501665 -0.03537358 1.1550001
-0.045637824 -0.035496086 1.159
-0.043759983 -0.035618592 1.1630001
-0.041832265 -0.035710469 1.166
-0.039894044 -0.035802349 1.169
-0.038010079 -0.035955481 1.174
-0.036108613 -0.036108613 1.179
-0.034276277 -0.036353625 1.187
-0.11378785 -0.034449536 1.1930001
-0.11095097 -0.034218524 1.1850001
-0.10841773 -0.034074143 1.1800001
-0.10617237 -0.034016389 1.1780001
-0.10384563 -0.033929758 1.1750001
-0.10152939 -0.03384313 1.1720001
-0.099138781 -0.033727624 1.1680001
-0.096845292 -0.033640996 1.1650001
-0.094480924 -0.033525489 1.161
-0.09228982 -0.033467736 1.159
-0.090027831 -0.033381104 1.156
-0.087852478 -0.033323355 1.154
-0.085609742 -0.033236727 1.151
-0.08337751 -0.033150095 1.148
-0.081155792 -0.033063468 1.1450001
-0.079013675 -0.033005714 1.143
-0.077013336 -0.033005714 1.143
-0.074947365 -0.032976836 1.1420001
-0.07288488 -0.032947961 1.141
-0.070888035 -0.032947961 1.141
-0.068951569 -0.032976836 1.1420001
-0.067011602 -0.033005714 1.143
-0.065125011 -0.033063468 1.1450001
-0.063231416 -0.033121221 1.1470001
-0.061277449 -0.033150095 1.148
-0.05931998 -0.03317897 1.149
-0.057309136 -0.03317897 1.149
-0.055394541 -0.033236727 1.151
-0.053426575 -0.033265602 1.1520001
-0.051544361 -0.03335223 1.1550001
-0.049608767 -0.033409987 1.1570001
-0.047707301 -0.033496615 1.1600001
-0.045755953 -0.033554364 1.1620001
-0.043835238 -0.033640996 1.1650001
-0.04197577 -0.033785377 1.1700001
-0.040030558 -0.033872008 1.1730001
-0.038107213 -0.033987515 1.177
-0.036169868 -0.034103017 1.1810001
-0.034276277 -0.034276277 1.187
-0.1135971 -0.032307431 1.1910001
-0.11085734 -0.032117549 1.184
-0.10850961 -0.03203617 1.1810001
-0.10608223 -0.03192766 1.177
-0.10375725 -0.031846285 1.174
-0.10135613 -0.031737782 1.1700001
-0.099053897 -0.031656399 1.1670001
-0.096679032 -0.031547893 1.1630001
-0.094399549 -0.031466518 1.1600001
-0.09228982 -0.03143939 1.159
-0.09010572 -0.031385135 1.1570001
-0.087852478 -0.03130376 1.154
-0.08553537 -0.031195253 1.1500001
-0.083232261 -0.031086747 1.146
-0.081084907 -0.031032493 1.1440001
-0.078875422 -0.030951116 1.141
-0.076878577 -0.030951116 1.141
-0.074881732 -0.030951116 1.141
-0.07288488 -0.030951116 1.141
-0.070950173 -0.030978244 1.1420001
-0.068951569 -0.030978244 1.1420001
-0.066952981 -0.030978244 1.1420001
-0.065011255 -0.031005366 1.143
-0.06312117 -0.031059623 1.1450001
-0.061224073 -0.031113874 1.1470001
-0.059165098 -0.031086747 1.146
-0.057159498 -0.031086747 1.146
-0.055250157 -0.031141 1.148
-0.053380195 -0.031222377 1.151
-0.051499732 -0.03130376 1.154
-0.049651645 -0.031412262 1.1580001
-0.047748424 -0.031493641 1.161
-0.045755953 -0.031520769 1.1620001
-0.043835238 -0.031602148 1.1650001
-0.041868143 -0.031656399 1.1670001
-0.039996427 -0.03179203 1.1720001
-0.038010079 -0.031846285 1.174
-0.036139242 -0.032009043 1.1800001
-0.034247402 -0.032171801 1.1860001
-0.1135971 -0.030223081 1.1910001
-0.11113822 -0.030121574 1.187
-0.10887711 -0.030070825 1.1850001
-0.10653288 -0.029994693 1.182
-0.103934 -0.029842436 1.176
-0.10144275 -0.029715555 1.171
-0.099138781 -0.029639428 1.1680001
-0.096928418 -0.029588673 1.166
-0.094725065 -0.029537922 1.164
-0.092528708 -0.02948717 1.1620001
-0.090339355 -0.029436419 1.1600001
-0.088080868 -0.029360289 1.1570001
-0.0857585 -0.029258784 1.153
-0.08337751 -0.029131902 1.148
-0.081226662 -0.029081151 1.146
-0.079082809 -0.029030399 1.1440001
-0.077080712 -0.029030399 1.1440001
-0.075144246 -0.029055774 1.1450001
-0.073140398 -0.029055774 1.1450001
-0.071136557 -0.029055774 1.1450001
-0.069072329 -0.029030399 1.1440001
-0.067011602 -0.029005021 1.143
-0.065068133 -0.029030399 1.1440001
-0.06312117 -0.029055774 1.1450001
-0.061224073 -0.029106526 1.1470001
-0.059216727 -0.029106526 1.1470001
-0.057309136 -0.029157281 1.149
-0.055394541 -0.029208032 1.151
-0.053565707 -0.029309537 1.1550001
-0.051678244 -0.029385667 1.1580001
-0.04982315 -0.02948717 1.1620001
-0.047912937 -0.0295633 1.1650001
-0.045952838 -0.029614052 1.1670001
-0.043948118 -0.029639428 1.1680001
-0.04197577 -0.02969018 1.1700001
-0.040064678 -0.029791685 1.174
-0.038074832 -0.029842436 1.176
-0.036200494 -0.029994693 1.182
-0.11378785 -0.028185984 1.1930001
-0.11113822 -0.028044224 1.187
-0.10878523 -0.027973346 1.184
-0.10635263 -0.027878843 1.1800001
-0.10375725 -0.027737085 1.174
-0.1012695 -0.027618956 1.169
-0.098969012 -0.027548077 1.166
-0.096762158 -0.027500825 1.164
-0.09464369 -0.027477199 1.1630001
-0.092449076 -0.027429946 1.161
-0.090261467 -0.027382694 1.159
-0.088004731 -0.027311815 1.156
-0.085832886 -0.027264563 1.154
-0.083450146 -0.027146433 1.149
-0.081297539 -0.027099181 1.1470001
-0.079082809 -0.027028302 1.1440001
-0.077013336 -0.027004674 1.143
-0.075078614 -0.027028302 1.1440001
-0.072948761 -0.02698105 1.1420001
-0.070950173 -0.02698105 1.1420001
-0.068951569 -0.02698105 1.1420001
-0.067011602 -0.027004674 1.143
-0.064954378 -0.02698105 1.1420001
-0.062955789 -0.02698105 1.1420001
-0.061117325 -0.027051929 1.1450001
-0.059268355 -0.027122805 1.148
-0.057359014 -0.02717006 1.1500001
-0.055442672 -0.027217312 1.1520001
-0.053565707 -0.027288191 1.1550001
-0.051633611 -0.027335443 1.1570001
-0.049780272 -0.027429946 1.161
-0.047871806 -0.027500825 1.164
-0.045952838 -0.027571702 1.1670001
-0.043910492 -0.027571702 1.1670001
-0.041904021 -0.02759533 1.1680001
-0.039962295 -0.027666207 1.171
-0.03804246 -0.027760712 1.1750001
-0.036200494 -0.027926095 1.182
-0.11170001 -0.026098134 1.1930001
-0.10915276 -0.025988754 1.1880001
-0.10662301 -0.025879372 1.1830001
-0.10411077 -0.025769992 1.1780001
-0.10152939 -0.025638735 1.1720001
-0.099138781 -0.025551232 1.1680001
-0.096928418 -0.025507478 1.166
-0.094806448 -0.025485603 1.1650001
-0.092528708 -0.025419975 1.1620001
-0.090339355 -0.025376223 1.1600001
-0.088233121 -0.025354346 1.159
-0.086130403 -0.025332471 1.1580001
-0.083885916 -0.025266843 1.1550001
-0.081581056 -0.025179338 1.151
-0.079428449 -0.025135584 1.149
-0.077282853 -0.025091834 1.1470001
-0.075275503 -0.025091834 1.1470001
-0.073204279 -0.025069958 1.146
-0.07119868 -0.025069958 1.146
-0.069193088 -0.025069958 1.146
-0.067187488 -0.025069958 1.146
-0.065181889 -0.025069958 1.146
-0.063231416 -0.025091834 1.1470001
-0.061384212 -0.025157463 1.1500001
-0.059578124 -0.025244966 1.154
-0.057658274 -0.025288716 1.156
-0.055683307 -0.025310595 1.1570001
-0.053658459 -0.025310595 1.1570001
-0.051722866 -0.025354346 1.159
-0.04982315 -0.025419975 1.1620001
-0.04795406 -0.025507478 1.166
-0.045992218 -0.025551232 1.1680001
-0.044023372 -0.025594983 1.1700001
-0.042047527 -0.025638735 1.1720001
-0.040132929 -0.025726238 1.176
-0.038204342 -0.025813743 1.1800001
-0.036353625 -0.025966875 1.187
-0.11170001 -0.024010282 1.1930001
-0.10915276 -0.023909653 1.1880001
-0.10662301 -0.023809021 1.1830001
-0.10411077 -0.023708392 1.1780001
-0.10152939 -0.023587637 1.1720001
-0.099223658 -0.023527259 1.169
-0.096845292 -0.023446755 1.1650001
-0.094806448 -0.023446755 1.1650001
-0.092528708 -0.023386378 1.1620001
-0.090339355 -0.023346126 1.1600001
-0.088156998 -0.023305874 1.1580001
-0.086056024 -0.023285747 1.1570001
-0.084031172 -0.023285747 1.1570001
-0.081722803 -0.023205241 1.153
-0.079566702 -0.023164989 1.151
-0.077350229 -0.023104612 1.148
-0.075275503 -0.023084488 1.1470001
-0.073204279 -0.02306436 1.146
-0.07119868 -0.02306436 1.146
-0.069313832 -0.023104612 1.148
-0.067304738 -0.023104612 1.148
-0.065295644 -0.023104612 1.148
-0.063341677 -0.02312474 1.149
-0.061544336 -0.023205241 1.153
-0.059681375 -0.023265621 1.156
-0.057708155 -0.023285747 1.1570001
-0.055683307 -0.023285747 1.1570001
-0.053658459 -0.023285747 1.1570001
-0.051722866 -0.023325998 1.159
-0.04982315 -0.023386378 1.1620001
-0.04795406 -0.02346688 1.166
-0.045952838 -0.023487007 1.1670001
-0.043948118 -0.023507133 1.1680001
-0.042011648 -0.023567509 1.171
-0.040098809 -0.023648014 1.1750001
-0.038236719 -0.023768771 1.1810001
-0.036353625 -0.023889525 1.187
-0.10961216 -0.021922432 1.1930001
-0.10698353 -0.021812174 1.187
-0.10455266 -0.021738673 1.1830001
-0.10196254 -0.021628417 1.177
-0.099563174 -0.021554913 1.1730001
-0.097094677 -0.021463035 1.1680001
-0.094887823 -0.021426281 1.166
-0.092687964 -0.021389529 1.164
-0.09049511 -0.021352777 1.1620001
-0.088309258 -0.021316027 1.1600001
-0.086204782 -0.02129765 1.159
-0.0841038 -0.021279277 1.1580001
-0.081793696 -0.021205772 1.154
-0.079566702 -0.021150645 1.151
-0.077552356 -0.021150645 1.151
-0.075472392 -0.021132268 1.1500001
-0.073459789 -0.021132268 1.1500001
-0.071322933 -0.021095514 1.148
-0.069313832 -0.021095514 1.148
-0.067304738 -0.021095514 1.148
-0.065409407 -0.021132268 1.1500001
-0.063507058 -0.02116902 1.1520001
-0.061704468 -0.021242524 1.156
-0.059733 -0.021260899 1.1570001
-0.057758033 -0.021279277 1.1580001
-0.055779561 -0.02129765 1.159
-0.053704839 -0.021279277 1.1580001
-0.051767495 -0.021316027 1.1600001
-0.049866032 -0.021371156 1.1630001
-0.048036315 -0.021463035 1.1680001
-0.046070967 -0.021499787 1.1700001
-0.044060998 -0.02151816 1.171
-0.04211928 -0.021573288 1.174
-0.040235311 -0.021665169 1.179
-0.038333844 -0.021757048 1.184
-0.10961216 -0.019834582 1.1930001
-0.10707366 -0.019751452 1.1880001
-0.10455266 -0.019668322 1.1830001
-0.10213579 -0.01960182 1.179
-0.099648051 -0.019518688 1.174
-0.097011551 -0.019402308 1.1670001
-0.094806448 -0.019369058 1.1650001
-0.092528708 -0.01931918 1.1620001
-0.090339355 -0.019285928 1.1600001
-0.088156998 -0.019252678 1.1580001
-0.086056024 -0.019236052 1.1570001
-0.083813287 -0.019186174 1.154
-0.081510179 -0.019119672 1.1500001
-0.07922107 -0.019053167 1.146
-0.077282853 -0.019069795 1.1470001
-0.075209871 -0.019053167 1.146
-0.073204279 -0.019053167 1.146
-0.071136557 -0.019036543 1.1450001
-0.069132708 -0.019036543 1.1450001
-0.067128859 -0.019036543 1.1450001
-0.065238774 -0.019069795 1.1470001
-0.063341677 -0.019103045 1.149
-0.06149096 -0.019152923 1.1520001
-0.059526492 -0.019169547 1.153
-0.057558522 -0.019186174 1.154
-0.055587053 -0.0192028 1.1550001
-0.053612083 -0.019219426 1.156
-0.051722866 -0.019269302 1.159
-0.04982315 -0.01931918 1.1620001
-0.047995187 -0.019402308 1.1670001
-0.046070967 -0.019452188 1.1700001
-0.044060998 -0.019468812 1.171
-0.042155158 -0.019535316 1.1750001
-0.040235311 -0.01960182 1.179
-0.038366221 -0.019701574 1.1850001
-0.10761443 -0.017761605 1.194
-0.10499456 -0.017672351 1.1880001
-0.10256894 -0.017612848 1.184
-0.099817805 -0.017493842 1.176
-0.097260937 -0.017404588 1.1700001
-0.094969198 -0.017359961 1.1670001
-0.092687964 -0.017315334 1.164
-0.090417229 -0.017270707 1.161
-0.088309258 -0.017255832 1.1600001
-0.086130403 -0.017226081 1.1580001
-0.083885916 -0.017181454 1.1550001
-0.081651933 -0.017136825 1.1520001
-0.079359323 -0.017077323 1.148
-0.077350229 -0.017077323 1.148
-0.075275503 -0.017062446 1.1470001
-0.073268153 -0.017062446 1.1470001
-0.07126081 -0.017062446 1.1470001
-0.069193088 -0.017047571 1.146
-0.067246117 -0.017062446 1.1470001
-0.065295644 -0.017077323 1.148
-0.063451931 -0.01712195 1.151
-0.061544336 -0.0171517 1.153
-0.059578124 -0.017166575 1.154
-0.057558522 -0.017166575 1.154
-0.055587053 -0.017181454 1.1550001
-0.053658459 -0.017211204 1.1570001
-0.051722866 -0.017240956 1.159
-0.049866032 -0.017300459 1.1630001
-0.048036315 -0.017374838 1.1680001
-0.0461891 -0.017449217 1.1730001
-0.044249129 -0.017493842 1.176
-0.042334538 -0.017553346 1.1800001
-0.040440075 -0.017627724 1.1850001
-0.10517132 -0.015619502 1.1900001
-0.10256894 -0.015540748 1.184
-0.099902689 -0.015448869 1.177
-0.097344063 -0.015370115 1.171
-0.095131956 -0.015343864 1.169
-0.092767596 -0.015291361 1.1650001
-0.09049511 -0.015251984 1.1620001
-0.088233121 -0.015212608 1.159
-0.086056024 -0.015186357 1.1570001
-0.083885916 -0.015160105 1.1550001
-0.081651933 -0.015120728 1.1520001
-0.079497583 -0.015094478 1.1500001
-0.077417605 -0.015081352 1.149
-0.07540676 -0.015081352 1.149
-0.073459789 -0.015094478 1.1500001
-0.071509317 -0.015107602 1.151
-0.069374219 -0.015081352 1.149
-0.067363366 -0.015081352 1.149
-0.065409407 -0.015094478 1.1500001
-0.063507058 -0.015120728 1.1520001
-0.06149096 -0.015120728 1.1520001
-0.059526492 -0.015133853 1.153
-0.057508644 -0.015133853 1.153
-0.055587053 -0.015160105 1.1550001
-0.053658459 -0.015186357 1.1570001
-0.05181212 -0.015238859 1.161
-0.049866032 -0.015265111 1.1630001
-0.048036315 -0.01533074 1.1680001
-0.0461891 -0.015396367 1.1730001
-0.044324387 -0.015461996 1.1780001
-0.042442169 -0.015527623 1.1830001
-0.10308871 -0.013536902 1.1900001
-0.10024221 -0.013434523 1.1810001
-0.097759709 -0.013377644 1.176
-0.095376089 -0.013332142 1.1720001
-0.093086109 -0.013298015 1.169
-0.090806618 -0.013263889 1.166
-0.088537641 -0.013229763 1.1630001
-0.086279154 -0.013195636 1.1600001
-0.084031172 -0.013161508 1.1570001
-0.081793696 -0.013127383 1.154
-0.079635836 -0.013104632 1.1520001
-0.077687114 -0.013116007 1.153
-0.075669266 -0.013116007 1.153
-0.073715299 -0.013127383 1.154
-0.071695708 -0.013127383 1.154
-0.069676101 -0.013127383 1.154
-0.067597881 -0.013116007 1.153
-0.065580033 -0.013116007 1.153
-0.063617311 -0.013127383 1.154
-0.061651092 -0.013138758 1.1550001
-0.059681375 -0.013150133 1.156
-0.057758033 -0.013172885 1.1580001
-0.055779561 -0.01318426 1.159
-0.053843968 -0.013207011 1.161
-0.051946003 -0.013241137 1.164
-0.050080415 -0.01328664 1.1680001
-0.048200823 -0.013332142 1.1720001
-0.046346609 -0.01338902 1.177
-0.044474892 -0.013445897 1.182
-0.10049684 -0.011396549 1.184
-0.097842835 -0.01132917 1.177
-0.095538847 -0.011300295 1.174
-0.09316574 -0.011261793 1.1700001
-0.090884507 -0.011232916 1.1670001
-0.088461511 -0.011184788 1.1620001
-0.086279154 -0.011165539 1.1600001
-0.083958536 -0.011127036 1.156
-0.081722803 -0.011098159 1.153
-0.079566702 -0.011078908 1.151
-0.077552356 -0.011078908 1.151
-0.075603642 -0.011088534 1.1520001
-0.073651418 -0.011098159 1.153
-0.071757831 -0.011117411 1.1550001
-0.069736488 -0.011117411 1.1550001
-0.067597881 -0.011098159 1.153
-0.065523155 -0.011088534 1.1520001
-0.063451931 -0.011078908 1.151
-0.061544336 -0.011098159 1.153
-0.05962975 -0.011117411 1.1550001
-0.057758033 -0.011146287 1.1580001
-0.055875815 -0.011175163 1.161
-0.0539831 -0.01120404 1.164
-0.051990632 -0.011213665 1.1650001
-0.050080415 -0.011242542 1.1680001
-0.048200823 -0.011281043 1.1720001
-0.046425361 -0.011348421 1.179
-0.044587772 -0.011406175 1.1850001
-0.098341614 -0.0093165748 1.1830001
-0.095945746 -0.0092850719 1.179
-0.093643509 -0.0092614451 1.176
-0.091273896 -0.0092299441 1.1720001
-0.088766024 -0.0091826925 1.166
-0.086427912 -0.0091511905 1.1620001
-0.0841038 -0.0091196895 1.1580001
-0.081935443 -0.009103938 1.156
-0.079774089 -0.0090881875 1.154
-0.077821873 -0.0090960627 1.1550001
-0.075734898 -0.0090881875 1.154
-0.073715299 -0.0090881875 1.154
-0.071695708 -0.0090881875 1.154
-0.069676101 -0.0090881875 1.154
-0.067597881 -0.0090803122 1.153
-0.065580033 -0.0090803122 1.153
-0.063617311 -0.0090881875 1.154
-0.061704468 -0.009103938 1.156
-0.059784632 -0.0091196895 1.1580001
-0.057907663 -0.0091433153 1.161
-0.0560202 -0.009166941 1.164
-0.054122232 -0.0091905678 1.1670001
-0.052124511 -0.009198444 1.1680001
-0.05025192 -0.0092299441 1.1720001
-0.048365328 -0.0092614451 1.176
-0.096189879 -0.0072400984 1.182
-0.093723141 -0.0072094724 1.177
-0.091273896 -0.0071788458 1.1720001
-0.088842154 -0.0071482197 1.1670001
-0.086502299 -0.0071237185 1.1630001
-0.084176429 -0.0070992168 1.159
-0.08200632 -0.0070869667 1.1570001
-0.07991235 -0.0070808409 1.156
-0.07775449 -0.0070685903 1.154
-0.075669266 -0.007062465 1.153
-0.073587552 -0.0070563396 1.1520001
-0.071571454 -0.0070563396 1.1520001
-0.06955535 -0.0070563396 1.1520001
-0.067539252 -0.0070563396 1.1520001
-0.065580033 -0.007062465 1.153
-0.063617311 -0.0070685903 1.154
-0.061651092 -0.0070747165 1.1550001
-0.059733 -0.0070869667 1.1570001
-0.057907663 -0.007111467 1.161
-0.0560202 -0.0071298438 1.164
-0.054168612 -0.007154345 1.1680001
-0.052213769 -0.0071665952 1.1700001
-0.050337672 -0.0071910964 1.174
-0.04848871 -0.007221723 1.179
-0.091741174 -0.0051539983 1.1780001
-0.089298934 -0.0051321224 1.1730001
-0.086799808 -0.0051058708 1.1670001
-0.084466949 -0.0050883703 1.1630001
-0.082289837 -0.0050796196 1.161
-0.080119736 -0.0050708689 1.159
-0.078091383 -0.0050708689 1.159
-0.07593178 -0.0050621191 1.1570001
-0.073779188 -0.0050533689 1.1550001
-0.071695708 -0.0050489935 1.154
-0.069615722 -0.0050446177 1.153
-0.06765651 -0.0050489935 1.154
-0.065693788 -0.0050533689 1.1550001
-0.063837834 -0.005066494 1.1580001
