# .PCD v0.7 - Point Cloud Data file format
VERSION 0.7
FIELDS x y z
SIZE 4 4 4
TYPE F F F
COUNT 1 1 1
WIDTH 1416
HEIGHT 1
VIEWPOINT 0 0 0 1 0 0 0
POINTS 1416
DATA ascii
-0.063679442 -0.10752431 1.1930001
-0.061591592 -0.10752431 1.1930001
-0.059403993 -0.10734405 1.1910001
-0.057319637 -0.10734405 1.1910001
-0.055188909 -0.10725392 1.1900001
-0.053061679 -0.10716379 1.189
-0.050980829 -0.10716379 1.189
-0.048899978 -0.10716379 1.189
-0.046858508 -0.10725392 1.1900001
-0.044813536 -0.10734405 1.1910001
-0.042800937 -0.10752431 1.1930001
-0.040713087 -0.10752431 1.1930001
-0.038657613 -0.10761443 1.194
-0.036598638 -0.10770456 1.1950001
-0.034565039 -0.10788482 1.197
-0.03252444 -0.10806508 1.199
-0.030451467 -0.10815521 1.2
-0.028422246 -0.10842559 1.2030001
-0.026382521 -0.10869599 1.2060001
-0.024332298 -0.10896637 1.2090001
-0.022271572 -0.10923675 1.212
-0.020216975 -0.10959728 1.2160001
-0.11374673 -0.10941352 1.238
-0.11094922 -0.10879487 1.2310001
-0.10799944 -0.10799944 1.222
-0.10534108 -0.10746918 1.2160001
-0.10329785 -0.10755755 1.217
-0.10125113 -0.10764594 1.2180001
-0.098794013 -0.10729243 1.2140001
-0.096271269 -0.10685053 1.2090001
-0.094077535 -0.10676214 1.2080001
-0.092115685 -0.1069389 1.21
-0.090221219 -0.10720404 1.2130001
-0.087589972 -0.10658538 1.2060001
-0.085266739 -0.10632025 1.2030001
-0.083161376 -0.10632025 1.2030001
-0.081056029 -0.10632025 1.2030001
-0.078885049 -0.10623186 1.202
-0.076653697 -0.10605511 1.2
-0.074429341 -0.10587835 1.1980001
-0.072211981 -0.1057016 1.1960001
-0.06988436 -0.10534807 1.192
-0.067741394 -0.10525969 1.1910001
-0.065601908 -0.10517132 1.1900001
-0.063519314 -0.10517132 1.1900001
-0.061333455 -0.10499456 1.1880001
-0.059204478 -0.10490617 1.187
-0.057127129 -0.10490617 1.187
-0.055003401 -0.1048178 1.1860001
-0.0529278 -0.1048178 1.1860001
-0.050852202 -0.1048178 1.1860001
-0.048776601 -0.1048178 1.1860001
-0.046701003 -0.1048178 1.1860001
-0.044700652 -0.10499456 1.1880001
-0.042657427 -0.10508294 1.189
-0.040576581 -0.10508294 1.189
-0.038528107 -0.10517132 1.1900001
-0.036476135 -0.10525969 1.1910001
-0.034449536 -0.10543646 1.1930001
-0.032443065 -0.1057016 1.1960001
-0.030375337 -0.10578997 1.197
-0.028351367 -0.10605511 1.2
-0.026251266 -0.10605511 1.2
-0.024211543 -0.10632025 1.2030001
-0.022142941 -0.106497 1.205
-0.02011722 -0.1069389 1.21
-0.018103745 -0.10755755 1.217
-0.11356296 -0.10707366 1.2360001
-0.11067883 -0.10638063 1.228
-0.10746918 -0.10534108 1.2160001
-0.10525444 -0.10525444 1.215
-0.10312809 -0.10525444 1.215
-0.10141739 -0.10568759 1.22
-0.099119522 -0.10551433 1.2180001
-0.096430518 -0.10490793 1.2110001
-0.094233289 -0.10482129 1.21
-0.092191823 -0.10490793 1.2110001
-0.090072468 -0.10490793 1.2110001
-0.087589972 -0.10447479 1.2060001
-0.085337617 -0.10430153 1.2040001
-0.083299637 -0.10438816 1.205
-0.081123412 -0.10430153 1.2040001
-0.078950681 -0.1042149 1.2030001
-0.07671757 -0.10404164 1.2010001
-0.074491456 -0.10386837 1.199
-0.072332732 -0.10378175 1.1980001
-0.070060246 -0.10352186 1.1950001
-0.067855142 -0.10334861 1.1930001
-0.065657042 -0.10317535 1.1910001
-0.063519314 -0.10308871 1.1900001
-0.06138508 -0.10300208 1.189
-0.05930423 -0.10300208 1.189
-0.057223383 -0.10300208 1.189
-0.055049777 -0.10282882 1.187
-0.052972425 -0.10282882 1.187
-0.050895076 -0.10282882 1.187
-0.048817724 -0.10282882 1.187
-0.046701003 -0.1027422 1.1860001
-0.044663023 -0.10282882 1.187
-0.042621553 -0.10291546 1.1880001
-0.040576581 -0.10300208 1.189
-0.038528107 -0.10308871 1.1900001
-0.036506757 -0.10326197 1.192
-0.034478411 -0.10343523 1.194
-0.032470189 -0.10369512 1.197
-0.030375337 -0.10369512 1.197
-0.028327739 -0.10386837 1.199
-0.026273141 -0.10404164 1.2010001
-0.024231669 -0.10430153 1.2040001
-0.022124566 -0.10430153 1.2040001
-0.020083968 -0.10464804 1.2080001
-0.018059121 -0.10516782 1.2140001
-0.11572608 -0.10491055 1.2360001
-0.11273605 -0.10414664 1.2270001
-0.11004793 -0.10363737 1.2210001
-0.10702728 -0.10278858 1.2110001
-0.10482129 -0.1027037 1.21
-0.10287345 -0.10287345 1.212
-0.10141739 -0.10355249 1.22
-0.098956764 -0.10321297 1.2160001
-0.096430518 -0.10278858 1.2110001
-0.094077535 -0.10253394 1.2080001
-0.092039563 -0.10261882 1.2090001
-0.089774944 -0.10244906 1.207
-0.087517343 -0.1022793 1.205
-0.085266739 -0.10210954 1.2030001
-0.083161376 -0.10210954 1.2030001
-0.080921277 -0.10193979 1.2010001
-0.078753792 -0.10185491 1.2
-0.076525934 -0.10168515 1.1980001
-0.074367203 -0.10160027 1.197
-0.072151601 -0.10143051 1.1950001
-0.069825739 -0.101091 1.1910001
-0.067627631 -0.10092123 1.189
-0.065381408 -0.1006666 1.1860001
-0.063305803 -0.1006666 1.1860001
-0.061178569 -0.10058172 1.1850001
-0.0591546 -0.1006666 1.1860001
-0.056934617 -0.10041197 1.1830001
-0.054864269 -0.10041197 1.1830001
-0.052749291 -0.10032708 1.182
-0.050766442 -0.10049684 1.184
-0.048694346 -0.10049684 1.184
-0.046661623 -0.10058172 1.1850001
-0.044587772 -0.10058172 1.1850001
-0.0425498 -0.1006666 1.1860001
-0.040508326 -0.10075147 1.187
-0.03846335 -0.10083636 1.1880001
-0.036476135 -0.101091 1.1910001
-0.034420658 -0.10117587 1.192
-0.032361683 -0.10126076 1.1930001
-0.030273836 -0.10126076 1.1930001
-0.028256863 -0.10151539 1.1960001
-0.026229387 -0.10177002 1.199
-0.024191415 -0.10202466 1.202
-0.022106189 -0.10210954 1.2030001
-0.02003409 -0.1022793 1.205
-0.017999616 -0.1027037 1.21
-0.01598702 -0.10338273 1.2180001
-0.11553882 -0.1025812 1.2340001
-0.11273605 -0.10199929 1.2270001
-0.11022818 -0.10166677 1.223
-0.10746918 -0.10108487 1.2160001
-0.10534108 -0.10108487 1.2160001
-0.10321297 -0.10108487 1.2160001
-0.10150052 -0.10150052 1.2210001
-0.098956764 -0.10108487 1.2160001
-0.096510142 -0.10075235 1.212
-0.09431117 -0.10066923 1.2110001
-0.092039563 -0.10050297 1.2090001
-0.08984933 -0.10041984 1.2080001
-0.087589972 -0.10025358 1.2060001
-0.085479371 -0.10025358 1.2060001
-0.083230518 -0.10008733 1.2040001
-0.080921277 -0.099837936 1.2010001
-0.078688167 -0.099671669 1.199
-0.07646206 -0.099505417 1.197
-0.074242949 -0.099339157 1.1950001
-0.07203085 -0.099172905 1.1930001
-0.06976711 -0.098923512 1.1900001
-0.067513876 -0.098674133 1.187
-0.065326273 -0.098507866 1.1850001
-0.063252419 -0.098507866 1.1850001
-0.061178569 -0.098507866 1.1850001
-0.0591546 -0.098591007 1.1860001
-0.056982744 -0.09842474 1.184
-0.054910641 -0.09842474 1.184
-0.052838545 -0.09842474 1.184
-0.050809324 -0.098507866 1.1850001
-0.048735473 -0.098507866 1.1850001
-0.046740375 -0.098674133 1.187
-0.044663023 -0.098674133 1.187
-0.042585675 -0.098674133 1.187
-0.040542454 -0.09875726 1.1880001
-0.038528107 -0.098923512 1.1900001
-0.036537383 -0.099172905 1.1930001
-0.034449536 -0.099172905 1.1930001
-0.03238881 -0.099256024 1.194
-0.030299207 -0.099256024 1.194
-0.028304113 -0.099588551 1.1980001
-0.026338769 -0.10008733 1.2040001
-0.02427192 -0.10025358 1.2060001
-0.022161318 -0.10025358 1.2060001
-0.020050716 -0.10025358 1.2060001
-0.018014494 -0.10066923 1.2110001
-0.015973894 -0.10116799 1.217
-0.11798456 -0.10066573 1.2370001
-0.11553882 -0.10042159 1.2340001
-0.1130117 -0.10009607 1.23
-0.11022818 -0.09952642 1.223
-0.10791107 -0.099363662 1.2210001
-0.10534108 -0.098956764 1.2160001
-0.10312809 -0.098875389 1.215
-0.10133426 -0.099200912 1.2190001
-0.098631248 -0.098631248 1.212
-0.096350886 -0.098468497 1.21
-0.094077535 -0.098305739 1.2080001
-0.091811173 -0.098142974 1.2060001
-0.089551821 -0.097980224 1.2040001
-0.087444715 -0.097980224 1.2040001
-0.085337617 -0.097980224 1.2040001
-0.082953997 -0.097654708 1.2
-0.080651753 -0.09741056 1.197
-0.078360021 -0.097166426 1.194
-0.07620655 -0.097085051 1.1930001
-0.073932312 -0.096840918 1.1900001
-0.071789332 -0.096759535 1.189
-0.069473974 -0.096434027 1.1850001
-0.067286365 -0.096271262 1.1830001
-0.065105766 -0.096108504 1.1810001
-0.063038915 -0.096108504 1.1810001
-0.061075319 -0.096271262 1.1830001
-0.05905484 -0.096352637 1.184
-0.056934617 -0.096271262 1.1830001
-0.054817893 -0.096189879 1.182
-0.052749291 -0.096189879 1.182
-0.050723568 -0.096271262 1.1830001
-0.048653223 -0.096271262 1.1830001
-0.046701003 -0.096515402 1.1860001
-0.044625401 -0.096515402 1.1860001
-0.042585675 -0.096596777 1.187
-0.040508326 -0.096596777 1.187
-0.038495727 -0.096759535 1.189
-0.036506757 -0.097003669 1.192
-0.034449536 -0.097085051 1.1930001
-0.03238881 -0.097166426 1.194
-0.030299207 -0.097166426 1.194
-0.028304113 -0.09749195 1.1980001
-0.026251266 -0.097654708 1.2
-0.024151163 -0.097654708 1.2
-0.022051062 -0.097654708 1.2
-0.019967588 -0.097736083 1.2010001
-0.017940113 -0.098142974 1.2060001
-0.015895141 -0.098549873 1.2110001
-0.11600697 -0.098660134 1.2390001
-0.11319546 -0.098102726 1.2320001
-0.11031832 -0.097465701 1.2240001
-0.10844135 -0.097704589 1.2270001
-0.10577422 -0.097226813 1.2210001
-0.10329785 -0.096908294 1.217
-0.10108487 -0.096828662 1.2160001
-0.098549873 -0.096430518 1.2110001
-0.096350886 -0.096350886 1.21
-0.094077535 -0.096191637 1.2080001
-0.091887303 -0.096111998 1.207
-0.089626193 -0.095952749 1.205
-0.087444715 -0.095873125 1.2040001
-0.085408486 -0.095952749 1.205
-0.08309225 -0.095713861 1.202
-0.080786511 -0.095474973 1.199
-0.078425653 -0.095156454 1.1950001
-0.07620655 -0.094997197 1.1930001
-0.073932312 -0.094758317 1.1900001
-0.071668573 -0.094519429 1.187
-0.069415346 -0.094280541 1.184
-0.067286365 -0.094200917 1.1830001
-0.06521602 -0.094200917 1.1830001
-0.063145667 -0.094200917 1.1830001
-0.061126944 -0.094280541 1.184
-0.05905484 -0.094280541 1.184
-0.057030872 -0.094360173 1.1850001
-0.055003401 -0.094439805 1.1860001
-0.0529278 -0.094439805 1.1860001
-0.050852202 -0.094439805 1.1860001
-0.048776601 -0.094439805 1.1860001
-0.046740375 -0.094519429 1.187
-0.044700652 -0.094599061 1.1880001
-0.042693306 -0.094758317 1.1900001
-0.040610708 -0.094758317 1.1900001
-0.038560484 -0.094837949 1.1910001
-0.036537383 -0.094997197 1.1930001
-0.034507286 -0.095156454 1.1950001
-0.032443065 -0.095236085 1.1960001
-0.030375337 -0.095315717 1.197
-0.028304113 -0.095395349 1.1980001
-0.026251266 -0.095554605 1.2
-0.024151163 -0.095554605 1.2
-0.022069439 -0.095634237 1.2010001
-0.02000084 -0.095793493 1.2030001
-0.01795499 -0.096111998 1.207
-0.015895141 -0.096430518 1.2110001
-0.013855417 -0.096987925 1.2180001
-0.11760303 -0.096024506 1.233
-0.11581971 -0.096336022 1.2370001
-0.11319546 -0.095946625 1.2320001
-0.11040844 -0.095401466 1.225
-0.10799944 -0.095167831 1.222
-0.10499455 -0.094389044 1.212
-0.10253394 -0.094077535 1.2080001
-0.10075235 -0.094389044 1.212
-0.098305739 -0.094077535 1.2080001
-0.096191637 -0.094077535 1.2080001
-0.093766026 -0.093766026 1.2040001
-0.091582783 -0.093688145 1.2030001
-0.089477435 -0.093688145 1.2030001
-0.087372087 -0.093688145 1.2030001
-0.085266739 -0.093688145 1.2030001
-0.082953997 -0.093454503 1.2
-0.080584385 -0.093142986 1.1960001
-0.078228764 -0.09283147 1.192
-0.076014914 -0.092675716 1.1900001
-0.073808059 -0.092519961 1.1880001
-0.071547821 -0.092286319 1.1850001
-0.069356717 -0.092130564 1.1830001
-0.067229487 -0.092052683 1.182
-0.06521602 -0.092130564 1.1830001
-0.063145667 -0.092130564 1.1830001
-0.060920436 -0.091896929 1.1800001
-0.058855332 -0.091896929 1.1800001
-0.05688649 -0.092052683 1.182
-0.055003401 -0.092364199 1.1860001
-0.052883171 -0.092286319 1.1850001
-0.050766442 -0.092208438 1.184
-0.048694346 -0.092208438 1.184
-0.046622243 -0.092208438 1.184
-0.044587772 -0.092286319 1.1850001
-0.042621553 -0.092519961 1.1880001
-0.040576581 -0.092597827 1.189
-0.038495727 -0.092597827 1.189
-0.036445506 -0.092675716 1.1900001
-0.034449536 -0.092909351 1.1930001
-0.032415938 -0.093065105 1.1950001
-0.030349962 -0.093142986 1.1960001
-0.028256863 -0.093142986 1.1960001
-0.026185635 -0.093220867 1.197
-0.024090784 -0.093220867 1.197
-0.022032686 -0.093376614 1.199
-0.019984214 -0.093610257 1.202
-0.017940113 -0.093921773 1.2060001
-0.015868891 -0.094155416 1.2090001
-0.013809916 -0.094544813 1.2140001
-0.11769842 -0.093942776 1.2340001
-0.11553882 -0.093942776 1.2340001
-0.1130117 -0.093638256 1.23
-0.10995779 -0.092876971 1.22
-0.10746918 -0.092572458 1.2160001
-0.10473467 -0.092039563 1.2090001
-0.10312809 -0.092496328 1.215
-0.10125113 -0.092724718 1.2180001
-0.098387122 -0.092039563 1.2090001
-0.096271269 -0.092039563 1.2090001
-0.093766026 -0.09165892 1.2040001
-0.091811173 -0.091811173 1.2060001
-0.089626193 -0.091735043 1.205
-0.087444715 -0.09165892 1.2040001
-0.085266739 -0.091582783 1.2030001
-0.083023123 -0.09143053 1.2010001
-0.080719136 -0.091202147 1.1980001
-0.078360021 -0.09089762 1.194
-0.076014914 -0.090593114 1.1900001
-0.073870182 -0.090516984 1.189
-0.071668573 -0.090364724 1.187
-0.069591224 -0.090364724 1.187
-0.067513876 -0.090364724 1.187
-0.065546781 -0.090516984 1.189
-0.063359179 -0.090364724 1.187
-0.060972068 -0.089907959 1.1810001
-0.058855332 -0.089831829 1.1800001
-0.05688649 -0.089984089 1.182
-0.055142529 -0.090516984 1.189
-0.053106308 -0.090593114 1.1900001
-0.050895076 -0.090364724 1.187
-0.048776601 -0.090288602 1.1860001
-0.046622243 -0.090136342 1.184
-0.044587772 -0.090212472 1.1850001
-0.042621553 -0.090440862 1.1880001
-0.040610708 -0.090593114 1.1900001
-0.038560484 -0.090669252 1.1910001
-0.036476135 -0.090669252 1.1910001
-0.034478411 -0.09089762 1.194
-0.032415938 -0.090973757 1.1950001
-0.030375337 -0.09112601 1.197
-0.028304113 -0.091202147 1.1980001
-0.026229387 -0.09127827 1.199
-0.024151163 -0.0913544 1.2
-0.022106189 -0.091582783 1.2030001
-0.020067342 -0.091887303 1.207
-0.017999616 -0.092115685 1.21
-0.015895141 -0.092191823 1.2110001
-0.013787164 -0.092267938 1.212
-0.11535156 -0.091634415 1.2320001
-0.11255229 -0.091113761 1.225
-0.10977753 -0.090593114 1.2180001
-0.10658538 -0.089700572 1.2060001
-0.10525444 -0.090369977 1.215
-0.10304322 -0.090295605 1.2140001
-0.10108487 -0.090444356 1.2160001
-0.098142974 -0.089700572 1.2060001
-0.096032381 -0.089700572 1.2060001
-0.093610257 -0.089403048 1.202
-0.091735043 -0.089626193 1.205
-0.089477435 -0.089477435 1.2030001
-0.087299451 -0.089403048 1.202
-0.0850541 -0.089254305 1.2
-0.08274661 -0.08903116 1.197
-0.080517009 -0.088882409 1.1950001
-0.078228764 -0.088659264 1.192
-0.075951025 -0.088436134 1.189
-0.073808059 -0.088361755 1.1880001
-0.071668573 -0.088287376 1.187
-0.069532603 -0.088213004 1.1860001
-0.06740012 -0.088138625 1.1850001
-0.06521602 -0.087989867 1.1830001
-0.062985532 -0.087766729 1.1800001
-0.06076555 -0.087543592 1.177
-0.058655821 -0.087469205 1.176
-0.056693986 -0.087617971 1.1780001
-0.054771516 -0.087841108 1.1810001
-0.052883171 -0.088138625 1.1850001
-0.050852202 -0.088213004 1.1860001
-0.048735473 -0.088138625 1.1850001
-0.04658287 -0.087989867 1.1830001
-0.044512521 -0.087989867 1.1830001
-0.042513922 -0.088138625 1.1850001
-0.040542454 -0.088361755 1.1880001
-0.038528107 -0.088510513 1.1900001
-0.036506757 -0.088659264 1.192
-0.034449536 -0.088733651 1.1930001
-0.032361683 -0.088733651 1.1930001
-0.030299207 -0.088808022 1.194
-0.028256863 -0.088956788 1.1960001
-0.026185635 -0.08903116 1.197
-0.024110911 -0.089105546 1.1980001
-0.022069439 -0.089328676 1.2010001
-0.020067342 -0.089774944 1.207
-0.017969865 -0.08984933 1.2080001
-0.015868891 -0.08992371 1.2090001
-0.013775789 -0.090072468 1.2110001
-0.11600697 -0.089986712 1.2390001
-0.11246042 -0.088897288 1.2240001
-0.10932689 -0.08809837 1.2130001
-0.10826459 -0.088969909 1.225
-0.10603411 -0.088897288 1.2240001
-0.10414664 -0.089115173 1.2270001
-0.10141739 -0.088606767 1.22
-0.098305739 -0.087735228 1.2080001
-0.096111998 -0.087662593 1.207
-0.093843892 -0.087517343 1.205
-0.092039563 -0.087807857 1.2090001
-0.089700572 -0.087589972 1.2060001
-0.087372087 -0.087372087 1.2030001
-0.0850541 -0.087154202 1.2
-0.082815744 -0.087008946 1.1980001
-0.080584385 -0.086863682 1.1960001
-0.078294396 -0.086645797 1.1930001
-0.076078795 -0.086500548 1.1910001
-0.073994443 -0.086500548 1.1910001
-0.071789332 -0.086355284 1.189
-0.069591224 -0.086210027 1.187
-0.06740012 -0.086064771 1.1850001
-0.065160885 -0.085846886 1.182
-0.062985532 -0.08570163 1.1800001
-0.060868807 -0.085629001 1.179
-0.058805458 -0.085629001 1.179
-0.056790233 -0.08570163 1.1800001
-0.054817893 -0.085846886 1.182
-0.0529278 -0.086137407 1.1860001
-0.050937958 -0.086282656 1.1880001
-0.048817724 -0.086210027 1.187
-0.046661623 -0.086064771 1.1850001
-0.044587772 -0.086064771 1.1850001
-0.042621553 -0.086282656 1.1880001
-0.040610708 -0.086427912 1.1900001
-0.038625237 -0.086645797 1.1930001
-0.036598638 -0.086791053 1.1950001
-0.034536164 -0.086863682 1.1960001
-0.032443065 -0.086863682 1.1960001
-0.030349962 -0.086863682 1.1960001
-0.028327739 -0.087081566 1.199
-0.026251266 -0.087154202 1.2
-0.024211543 -0.087372087 1.2030001
-0.022216447 -0.087807857 1.2090001
-0.020200348 -0.088243626 1.215
-0.018029368 -0.088025734 1.212
-0.015908265 -0.088025734 1.212
-0.013809916 -0.088170998 1.2140001
-0.11494116 -0.08866889 1.251
-0.11185052 -0.087960109 1.2410001
-0.10852973 -0.087038688 1.228
-0.10612074 -0.086826049 1.225
-0.10091861 -0.086046398 1.2140001
-0.097898841 -0.085266739 1.2030001
-0.095713861 -0.085195847 1.202
-0.093766026 -0.085337617 1.2040001
-0.091811173 -0.085479371 1.2060001
-0.089477435 -0.085266739 1.2030001
-0.087154202 -0.0850541 1.2
-0.084912345 -0.084912345 1.1980001
-0.082677484 -0.084770583 1.1960001
-0.08038225 -0.08455795 1.1930001
-0.07816314 -0.084416196 1.1910001
-0.075887159 -0.084203556 1.1880001
-0.073808059 -0.084203556 1.1880001
-0.071668573 -0.084132679 1.187
-0.069532603 -0.084061801 1.1860001
-0.067286365 -0.083849162 1.1830001
-0.065050632 -0.08363653 1.1800001
-0.062878788 -0.083494775 1.1780001
-0.060817182 -0.083494775 1.1780001
-0.05875558 -0.083494775 1.1780001
-0.056742106 -0.083565645 1.179
-0.054725137 -0.08363653 1.1800001
-0.05279392 -0.083849162 1.1830001
-0.050809324 -0.083990924 1.1850001
-0.048735473 -0.083990924 1.1850001
-0.046661623 -0.083990924 1.1850001
-0.044587772 -0.083990924 1.1850001
-0.042585675 -0.084132679 1.187
-0.040576581 -0.084274426 1.189
-0.038560484 -0.084416196 1.1910001
-0.036568012 -0.08462882 1.194
-0.034478411 -0.08462882 1.194
-0.03238881 -0.08462882 1.194
-0.030324586 -0.084699705 1.1950001
-0.028233236 -0.084699705 1.1950001
-0.026163761 -0.084770583 1.1960001
-0.024131035 -0.084983215 1.199
-0.022142941 -0.085408486 1.205
-0.02015047 -0.085904635 1.212
-0.018029368 -0.085904635 1.212
-0.015921393 -0.08597552 1.2130001
-0.013844041 -0.08625903 1.217
-0.1201783 -0.087101698 1.2600001
-0.11778592 -0.086963437 1.258
-0.11530868 -0.086756058 1.2550001
-0.11329258 -0.086894311 1.2570001
-0.10923676 -0.085442618 1.2360001
-0.10594748 -0.084543951 1.223
-0.10058609 -0.083645277 1.21
-0.097898841 -0.083161376 1.2030001
-0.095713861 -0.08309225 1.202
-0.093999654 -0.083437897 1.207
-0.092039563 -0.083576158 1.2090001
-0.089626193 -0.083299637 1.205
-0.087372087 -0.083161376 1.2030001
-0.0850541 -0.082953997 1.2
-0.082815744 -0.082815744 1.1980001
-0.08038225 -0.082470104 1.1930001
-0.078097515 -0.08226271 1.1900001
-0.075887159 -0.082124457 1.1880001
-0.073808059 -0.082124457 1.1880001
-0.071668573 -0.082055323 1.187
-0.069591224 -0.082055323 1.187
-0.067456998 -0.081986204 1.1860001
-0.065271147 -0.081847943 1.184
-0.063092291 -0.08170969 1.182
-0.061075319 -0.081778817 1.1830001
-0.058955088 -0.08170969 1.182
-0.05688649 -0.08170969 1.182
-0.054864269 -0.081778817 1.1830001
-0.052883171 -0.08191707 1.1850001
-0.050852202 -0.081986204 1.1860001
-0.048776601 -0.081986204 1.1860001
-0.046740375 -0.082055323 1.187
-0.044700652 -0.082124457 1.1880001
-0.042585675 -0.082055323 1.187
-0.040542454 -0.082124457 1.1880001
-0.038528107 -0.08226271 1.1900001
-0.036506757 -0.082400963 1.192
-0.034536164 -0.082677484 1.1960001
-0.032497313 -0.082815744 1.1980001
-0.030400714 -0.082815744 1.1980001
-0.028256863 -0.082677484 1.1960001
-0.026163761 -0.082677484 1.1960001
-0.024110911 -0.082815744 1.1980001
-0.022106189 -0.083161376 1.2030001
-0.020067342 -0.083437897 1.207
-0.018014494 -0.083714411 1.2110001
-0.015921393 -0.083852664 1.2130001
-0.013855417 -0.084198311 1.2180001
-0.1223834 -0.084896594 1.2600001
-0.11931988 -0.084290184 1.251
-0.11694326 -0.084155425 1.2490001
-0.11466552 -0.08408805 1.248
-0.11284194 -0.084357567 1.2520001
-0.1095019 -0.083481647 1.2390001
-0.10033671 -0.081325538 1.207
-0.097736083 -0.080921277 1.2010001
-0.095634237 -0.080921277 1.2010001
-0.093999654 -0.081325538 1.207
-0.091887303 -0.081325538 1.207
-0.089551821 -0.081123412 1.2040001
-0.087299451 -0.080988646 1.202
-0.084983215 -0.080786511 1.199
-0.082677484 -0.080584385 1.1960001
-0.080247492 -0.080247492 1.1910001
-0.077900626 -0.079977974 1.187
-0.075695522 -0.079843223 1.1850001
-0.073559545 -0.07977584 1.184
-0.071487442 -0.07977584 1.184
-0.069415346 -0.07977584 1.184
-0.067343242 -0.07977584 1.184
-0.065160885 -0.079641081 1.182
-0.063092291 -0.079641081 1.182
-0.061023686 -0.079641081 1.182
-0.058905218 -0.079573713 1.1810001
-0.056790233 -0.07950633 1.1800001
-0.054725137 -0.07950633 1.1800001
-0.052749291 -0.079641081 1.182
-0.050680693 -0.079641081 1.182
-0.048694346 -0.07977584 1.184
-0.046661623 -0.079843223 1.1850001
-0.044587772 -0.079843223 1.1850001
-0.042406291 -0.079641081 1.182
-0.040337693 -0.079641081 1.182
-0.038236719 -0.079573713 1.1810001
-0.036261749 -0.07977584 1.184
-0.034391783 -0.080247492 1.1910001
-0.032443065 -0.080584385 1.1960001
-0.030375337 -0.080651753 1.197
-0.028209606 -0.080449626 1.194
-0.026141886 -0.080517009 1.1950001
-0.024090784 -0.080651753 1.197
-0.022051062 -0.080853894 1.2
-0.02000084 -0.081056029 1.2030001
-0.017940113 -0.08125817 1.2060001
-0.015868891 -0.081460305 1.2090001
-0.01379854 -0.081729807 1.2130001
-0.12267479 -0.082888365 1.263
-0.1197014 -0.082363345 1.2550001
-0.11713052 -0.082100831 1.251
-0.1147574 -0.081969574 1.2490001
-0.11293206 -0.08223208 1.253
-0.11056245 -0.082100831 1.251
-0.10768006 -0.081575803 1.243
-0.10066923 -0.079475701 1.2110001
-0.098061599 -0.07908193 1.205
-0.095873125 -0.079016313 1.2040001
-0.094155416 -0.079344451 1.2090001
-0.092039563 -0.079344451 1.2090001
-0.089626193 -0.07908193 1.205
-0.087299451 -0.078885049 1.202
-0.084983215 -0.078688167 1.199
-0.082677484 -0.078491278 1.1960001
-0.080247492 -0.07816314 1.1910001
-0.077900626 -0.077900626 1.187
-0.075695522 -0.077769376 1.1850001
-0.073621668 -0.077769376 1.1850001
-0.071547821 -0.077769376 1.1850001
-0.069415346 -0.077703744 1.184
-0.067286365 -0.077638119 1.1830001
-0.065105766 -0.077506863 1.1810001
-0.063092291 -0.077572487 1.182
-0.061023686 -0.077572487 1.182
-0.058955088 -0.077572487 1.182
-0.05688649 -0.077572487 1.182
-0.054864269 -0.077638119 1.1830001
-0.05279392 -0.077638119 1.1830001
-0.050723568 -0.077638119 1.1830001
-0.048653223 -0.077638119 1.1830001
-0.046622243 -0.077703744 1.184
-0.044512521 -0.077638119 1.1830001
-0.04237042 -0.077506863 1.1810001
-0.040303569 -0.077506863 1.1810001
-0.038171962 -0.077375598 1.179
-0.036200494 -0.077572487 1.182
-0.034391783 -0.07816314 1.1910001
-0.03252444 -0.078688167 1.199
-0.030426089 -0.078688167 1.199
-0.028280485 -0.07855691 1.197
-0.026185635 -0.07855691 1.197
-0.024131035 -0.078688167 1.199
-0.022069439 -0.078819424 1.2010001
-0.019984214 -0.078885049 1.202
-0.017910363 -0.079016313 1.2040001
-0.015842637 -0.079213187 1.207
-0.013787164 -0.079541326 1.212
-0.12267479 -0.080678008 1.263
-0.11998753 -0.080358617 1.258
-0.1174114 -0.080103114 1.2540001
-0.11503305 -0.079975352 1.2520001
-0.11302219 -0.080103114 1.2540001
-0.11065084 -0.079975352 1.2520001
-0.10793995 -0.079592079 1.2460001
-0.10116799 -0.077739619 1.217
-0.098387122 -0.077228598 1.2090001
-0.096111998 -0.077100836 1.207
-0.094155416 -0.077228598 1.2090001
-0.091811173 -0.077036969 1.2060001
-0.089328676 -0.07671757 1.2010001
-0.087008946 -0.076525934 1.1980001
-0.08462882 -0.076270424 1.194
-0.082331844 -0.076078795 1.1910001
-0.080045357 -0.075887159 1.1880001
-0.077769376 -0.075695522 1.1850001
-0.075631641 -0.075631641 1.184
-0.073497415 -0.075567767 1.1830001
-0.07136669 -0.075503886 1.182
-0.069180831 -0.075376131 1.1800001
-0.067115732 -0.075376131 1.1800001
-0.065050632 -0.075376131 1.1800001
-0.063038915 -0.075440012 1.1810001
-0.060920436 -0.075376131 1.1800001
-0.058855332 -0.075376131 1.1800001
-0.056693986 -0.075248376 1.1780001
-0.054678757 -0.075312249 1.179
-0.052570783 -0.075248376 1.1780001
-0.050552059 -0.075312249 1.179
-0.048447587 -0.075248376 1.1780001
-0.046385989 -0.075248376 1.1780001
-0.044362012 -0.075312249 1.179
-0.04229866 -0.075312249 1.179
-0.040201191 -0.075248376 1.1780001
-0.03804246 -0.075056739 1.1750001
-0.036016732 -0.075120613 1.176
-0.034189645 -0.075631641 1.184
-0.032361683 -0.07620655 1.1930001
-0.030324586 -0.076334298 1.1950001
-0.028209606 -0.076270424 1.194
-0.026141886 -0.076334298 1.1950001
-0.024110911 -0.076525934 1.1980001
-0.022051062 -0.076653697 1.2
-0.019984214 -0.076781444 1.202
-0.017910363 -0.076909207 1.2040001
-0.015816387 -0.076973081 1.205
-0.013741662 -0.077164717 1.2080001
-0.011675688 -0.077484109 1.2130001
-0.12286904 -0.078591913 1.2650001
-0.12046443 -0.078467652 1.263
-0.11797319 -0.078281276 1.2600001
-0.11558431 -0.078157015 1.258
-0.11338271 -0.078157015 1.258
-0.11109273 -0.078094892 1.2570001
-0.10819984 -0.077597864 1.2490001
-0.10541983 -0.077162966 1.2420001
-0.098712631 -0.075361252 1.2130001
-0.096191637 -0.075050615 1.2080001
-0.094077535 -0.075050615 1.2080001
-0.09165892 -0.074802108 1.2040001
-0.089254305 -0.074553594 1.2
-0.08693631 -0.074367203 1.197
-0.08462882 -0.074180819 1.194
-0.082331844 -0.073994443 1.1910001
-0.080045357 -0.073808059 1.1880001
-0.077835001 -0.073683806 1.1860001
-0.075695522 -0.073621668 1.1850001
-0.073497415 -0.073497415 1.1830001
-0.07136669 -0.073435292 1.182
-0.06923946 -0.073373161 1.1810001
-0.067172617 -0.073373161 1.1810001
-0.065105766 -0.073373161 1.1810001
-0.063038915 -0.073373161 1.1810001
-0.060920436 -0.073311031 1.1800001
-0.058855332 -0.073311031 1.1800001
-0.056790233 -0.073311031 1.1800001
-0.054678757 -0.0732489 1.179
-0.052615408 -0.0732489 1.179
-0.050509185 -0.073186778 1.1780001
-0.048365328 -0.073062517 1.176
-0.046346609 -0.073124647 1.177
-0.044362012 -0.0732489 1.179
-0.04229866 -0.0732489 1.179
-0.040132929 -0.073062517 1.176
-0.038010079 -0.072938263 1.174
-0.035955481 -0.072938263 1.174
-0.034045264 -0.0732489 1.179
-0.032226052 -0.073808059 1.1880001
-0.030273836 -0.074118696 1.1930001
-0.028209606 -0.074180819 1.194
-0.026120007 -0.074180819 1.194
-0.024070662 -0.07430508 1.1960001
-0.022051062 -0.074553594 1.2
-0.019984214 -0.074677847 1.202
-0.017910363 -0.074802108 1.2040001
-0.015816387 -0.074864231 1.205
-0.013741662 -0.075050615 1.2080001
-0.011666061 -0.075299129 1.212
-0.12248053 -0.076136544 1.261
-0.1201783 -0.076076172 1.2600001
-0.11787956 -0.076015785 1.2590001
-0.11558431 -0.075955406 1.258
-0.11338271 -0.075955406 1.258
-0.11100435 -0.075834654 1.256
-0.1083731 -0.075532757 1.251
-0.10558959 -0.075110123 1.2440001
-0.098956764 -0.073419541 1.2160001
-0.096350886 -0.073057272 1.21
-0.094077535 -0.072936513 1.2080001
-0.091582783 -0.072634622 1.2030001
-0.089105546 -0.072332732 1.1980001
-0.086863682 -0.072211981 1.1960001
-0.084487066 -0.071970463 1.192
-0.082193583 -0.071789332 1.189
-0.079910599 -0.071608201 1.1860001
-0.077703744 -0.071487442 1.184
-0.075567767 -0.07142707 1.1830001
-0.073373161 -0.071306311 1.1810001
-0.071245931 -0.071245931 1.1800001
-0.069122203 -0.071185552 1.179
-0.067115732 -0.071245931 1.1800001
-0.065050632 -0.071245931 1.1800001
-0.062932156 -0.071185552 1.179
-0.060868807 -0.071185552 1.179
-0.05875558 -0.07112518 1.1780001
-0.056645852 -0.0710648 1.177
-0.054539625 -0.071004413 1.176
-0.052526154 -0.0710648 1.177
-0.050466307 -0.0710648 1.177
-0.048365328 -0.071004413 1.176
-0.046267856 -0.070944041 1.1750001
-0.044249129 -0.071004413 1.176
-0.04211928 -0.070883662 1.174
-0.039928176 -0.070642151 1.1700001
-0.037783444 -0.07046102 1.1670001
-0.035741094 -0.07046102 1.1670001
-0.033727624 -0.070521399 1.1680001
-0.031873412 -0.070944041 1.1750001
-0.030045444 -0.071487442 1.184
-0.028091477 -0.071789332 1.189
-0.026032504 -0.071849711 1.1900001
-0.023990154 -0.071970463 1.192
-0.021977559 -0.072211981 1.1960001
-0.01991771 -0.072332732 1.1980001
-0.017865736 -0.072513871 1.2010001
-0.01577701 -0.072574243 1.202
-0.013707535 -0.072755381 1.205
-0.01162756 -0.072936513 1.2080001
-0.12277191 -0.074105568 1.2640001
-0.12046443 -0.07404694 1.263
-0.11787956 -0.073812433 1.2590001
-0.1156762 -0.073812433 1.2590001
-0.11338271 -0.073753804 1.258
-0.1111811 -0.073753804 1.258
-0.10863298 -0.073519289 1.2540001
-0.10584422 -0.073108897 1.2470001
-0.098875389 -0.071232803 1.215
-0.096350886 -0.07093966 1.21
-0.094077535 -0.07082241 1.2080001
-0.091811173 -0.07070516 1.2060001
-0.089403048 -0.070470646 1.202
-0.087081566 -0.07029476 1.199
-0.084699705 -0.070060246 1.1950001
-0.082193583 -0.069708481 1.189
-0.079910599 -0.069532603 1.1860001
-0.077703744 -0.069415346 1.184
-0.075567767 -0.069356717 1.1830001
-0.073435292 -0.069298089 1.182
-0.07136669 -0.069298089 1.182
-0.069298089 -0.069298089 1.182
-0.067172617 -0.06923946 1.1810001
-0.065105766 -0.06923946 1.1810001
-0.062878788 -0.069063574 1.1780001
-0.060817182 -0.069063574 1.1780001
-0.05875558 -0.069063574 1.1780001
-0.056693986 -0.069063574 1.1780001
-0.054632384 -0.069063574 1.1780001
-0.052570783 -0.069063574 1.1780001
-0.050552059 -0.069122203 1.179
-0.048447587 -0.069063574 1.1780001
-0.046267856 -0.068887696 1.1750001
-0.044173878 -0.068829067 1.174
-0.041939896 -0.068535931 1.169
-0.039757539 -0.068301417 1.1650001
-0.037621565 -0.068125531 1.1620001
-0.035618592 -0.06818416 1.1630001
-0.033640996 -0.068301417 1.1650001
-0.031710654 -0.068535931 1.169
-0.029918566 -0.069122203 1.179
-0.028067855 -0.06964986 1.1880001
-0.026032504 -0.06976711 1.1900001
-0.023990154 -0.06988436 1.192
-0.021959184 -0.070060246 1.1950001
-0.01991771 -0.070236139 1.1980001
-0.017835982 -0.07029476 1.199
-0.01577701 -0.070470646 1.202
-0.013707535 -0.070646524 1.205
-0.011646811 -0.07093966 1.21
-0.0095607108 -0.071174182 1.2140001
-0.12296617 -0.072007217 1.266
-0.12027366 -0.071722828 1.261
-0.11778592 -0.071552195 1.258
-0.11549245 -0.071495324 1.2570001
-0.11329258 -0.071495324 1.2570001
-0.11109273 -0.071495324 1.2570001
-0.10854635 -0.071267806 1.253
-0.1059291 -0.070983417 1.248
-0.098875389 -0.069106452 1.215
-0.096430518 -0.068878941 1.2110001
-0.093999654 -0.06865143 1.207
-0.091887303 -0.06865143 1.207
-0.089328676 -0.068310164 1.2010001
-0.087008946 -0.068139531 1.1980001
-0.084487066 -0.067798264 1.192
-0.082124457 -0.067570761 1.1880001
-0.079843223 -0.06740012 1.1850001
-0.077572487 -0.067229487 1.182
-0.075440012 -0.067172617 1.1810001
-0.073311031 -0.067115732 1.1800001
-0.071245931 -0.067115732 1.1800001
-0.069180831 -0.067115732 1.1800001
-0.067058854 -0.067058854 1.179
-0.064940378 -0.067001984 1.1780001
-0.062825404 -0.066945098 1.177
-0.060713924 -0.066888221 1.176
-0.058655821 -0.066888221 1.176
-0.056549601 -0.06683135 1.1750001
-0.054539625 -0.066888221 1.176
-0.052481528 -0.066888221 1.176
-0.050466307 -0.066945098 1.177
-0.048365328 -0.066888221 1.176
-0.046149723 -0.06666071 1.1720001
-0.043985743 -0.066490076 1.169
-0.041832265 -0.066319443 1.166
-0.039723411 -0.066205688 1.164
-0.037589185 -0.066035055 1.161
-0.035557337 -0.066035055 1.161
-0.033554364 -0.06609194 1.1620001
-0.031602148 -0.066262566 1.1650001
-0.029791685 -0.066774465 1.174
-0.027926095 -0.067229487 1.182
-0.025945002 -0.067456998 1.1860001
-0.023909653 -0.067570761 1.1880001
-0.021904055 -0.067798264 1.192
-0.01988446 -0.068025775 1.1960001
-0.017806232 -0.068082653 1.197
-0.015750758 -0.068253286 1.2
-0.013673408 -0.068367042 1.202
-0.011617934 -0.06865143 1.207
-0.009537085 -0.068878941 1.2110001
-0.12036905 -0.0695711 1.2620001
-0.11787956 -0.06940572 1.2590001
-0.11558431 -0.069350585 1.258
-0.11329258 -0.069295458 1.2570001
-0.1111811 -0.069350585 1.258
-0.10863298 -0.069130085 1.2540001
-0.1059291 -0.068799309 1.248
-0.098875389 -0.066980101 1.215
-0.096350886 -0.066704459 1.21
-0.093921773 -0.066483952 1.2060001
-0.092115685 -0.066704459 1.21
-0.089551821 -0.066373698 1.2040001
-0.087154202 -0.066153191 1.2
-0.08462882 -0.065822415 1.194
-0.082193583 -0.065546781 1.189
-0.079977974 -0.065436527 1.187
-0.077769376 -0.065326273 1.1850001
-0.075503886 -0.065160885 1.182
-0.073373161 -0.065105766 1.1810001
-0.071185552 -0.064995505 1.179
-0.069180831 -0.065050632 1.1800001
-0.067001984 -0.064940378 1.1780001
-0.064830117 -0.064830117 1.176
-0.062718645 -0.06477499 1.1750001
-0.060610667 -0.064719863 1.174
-0.05860595 -0.06477499 1.1750001
-0.056597725 -0.064830117 1.176
-0.054539625 -0.064830117 1.176
-0.052436899 -0.06477499 1.1750001
-0.050380554 -0.06477499 1.1750001
-0.048241951 -0.064664744 1.1730001
-0.046110343 -0.064554483 1.171
-0.043985743 -0.064444229 1.169
-0.041939896 -0.064444229 1.169
-0.039859924 -0.064389102 1.1680001
-0.037718695 -0.064223722 1.1650001
-0.035618592 -0.064113468 1.1630001
-0.033612121 -0.064168587 1.164
-0.031710654 -0.064444229 1.169
-0.029867815 -0.064885251 1.177
-0.027949722 -0.06521602 1.1830001
-0.025945002 -0.065381408 1.1860001
-0.023909653 -0.065491654 1.1880001
-0.021904055 -0.065712161 1.192
-0.01988446 -0.065932676 1.1960001
-0.017821109 -0.066042937 1.1980001
-0.015750758 -0.066153191 1.2
-0.013684784 -0.066318572 1.2030001
-0.01162756 -0.066594206 1.2080001
-0.1201783 -0.067255743 1.2600001
-0.1176923 -0.067095608 1.2570001
-0.11549245 -0.067095608 1.2570001
-0.11320246 -0.067042232 1.256
-0.11109273 -0.067095608 1.2570001
-0.10845973 -0.066828728 1.2520001
-0.10584422 -0.066561833 1.2470001
-0.099038139 -0.064960502 1.217
-0.096350886 -0.064586863 1.21
-0.093843892 -0.064319976 1.205
-0.091963433 -0.064480104 1.2080001
-0.089551821 -0.0642666 1.2040001
-0.087081566 -0.063999705 1.199
-0.084487066 -0.063626066 1.192
-0.082193583 -0.063465931 1.189
-0.080045357 -0.063412555 1.1880001
-0.077769376 -0.063252419 1.1850001
-0.075440012 -0.063038915 1.1810001
-0.0732489 -0.062932156 1.179
-0.071185552 -0.062932156 1.179
-0.069122203 -0.062932156 1.179
-0.066945098 -0.062825404 1.177
-0.06477499 -0.062718645 1.1750001
-0.062665261 -0.062665261 1.174
-0.060610667 -0.062665261 1.174
-0.058556069 -0.062665261 1.174
-0.056501471 -0.062665261 1.174
-0.054446869 -0.062665261 1.174
-0.052347649 -0.062611893 1.1730001
-0.05025192 -0.062558517 1.1720001
-0.048159692 -0.062505133 1.171
-0.046031591 -0.062398378 1.169
-0.043948118 -0.062345009 1.1680001
-0.04197577 -0.062451757 1.1700001
-0.039928176 -0.062451757 1.1700001
-0.037783444 -0.062291626 1.1670001
-0.035710469 -0.062238246 1.166
-0.033698749 -0.062291626 1.1670001
-0.03179203 -0.062558517 1.1720001
-0.029842436 -0.062772021 1.176
-0.027855216 -0.062932156 1.179
-0.025857495 -0.063092291 1.182
-0.023869401 -0.063305803 1.1860001
-0.021848926 -0.063465931 1.189
-0.019817954 -0.063626066 1.192
-0.017776482 -0.063786201 1.1950001
-0.015724508 -0.063946329 1.1980001
-0.013662033 -0.064106472 1.2010001
-0.011608309 -0.064373352 1.2060001
-0.0095449593 -0.064693615 1.212
-0.12046443 -0.065205514 1.263
-0.11778592 -0.064947374 1.258
-0.11549245 -0.064895749 1.2570001
-0.11320246 -0.064844124 1.256
-0.11100435 -0.064844124 1.256
-0.10854635 -0.064689241 1.253
-0.10601398 -0.064482726 1.2490001
-0.099200912 -0.062933907 1.2190001
-0.096430518 -0.062520891 1.2110001
-0.094077535 -0.062366005 1.2080001
-0.092115685 -0.062469255 1.21
-0.089700572 -0.062262751 1.2060001
-0.087154202 -0.061952986 1.2
-0.08455795 -0.061591592 1.1930001
-0.082331844 -0.061488338 1.1910001
-0.080045357 -0.061333455 1.1880001
-0.077835001 -0.061230201 1.1860001
-0.075567767 -0.061075319 1.1830001
-0.073373161 -0.060972068 1.1810001
-0.071185552 -0.060868807 1.179
-0.069122203 -0.060868807 1.179
-0.066945098 -0.06076555 1.177
-0.064830117 -0.060713924 1.176
-0.062611893 -0.060559046 1.1730001
-0.060610667 -0.060610667 1.174
-0.058506198 -0.060559046 1.1730001
-0.056549601 -0.060662299 1.1750001
-0.054446869 -0.060610667 1.174
-0.05239227 -0.060610667 1.174
-0.050294802 -0.060559046 1.1730001
-0.048159692 -0.06045578 1.171
-0.046110343 -0.06045578 1.171
-0.044023372 -0.060404163 1.1700001
-0.042011648 -0.06045578 1.171
-0.039928176 -0.060404163 1.1700001
-0.037815824 -0.060300905 1.1680001
-0.035771728 -0.060300905 1.1680001
-0.033814255 -0.06045578 1.171
-0.031900536 -0.060713924 1.176
-0.029893192 -0.060817182 1.1780001
-0.027855216 -0.060868807 1.179
-0.025879372 -0.061075319 1.1830001
-0.023889525 -0.06128183 1.187
-0.021848926 -0.06138508 1.189
-0.01980133 -0.061488338 1.1910001
-0.017761605 -0.061643217 1.194
-0.01571138 -0.061798099 1.197
-0.013662033 -0.062004618 1.2010001
-0.011608309 -0.062262751 1.2060001
-0.1205598 -0.06304504 1.2640001
-0.11778592 -0.062745772 1.258
-0.11549245 -0.062695891 1.2570001
-0.11320246 -0.062646016 1.256
-0.11091597 -0.062596142 1.2550001
-0.10845973 -0.062446512 1.2520001
-0.10601398 -0.062296875 1.2490001
-0.10316309 -0.061897852 1.2410001
-0.096669406 -0.06055117 1.2140001
-0.09431117 -0.06040154 1.2110001
-0.092115685 -0.060351655 1.21
-0.089774944 -0.060202025 1.207
-0.087154202 -0.059852883 1.2
-0.08462882 -0.059553616 1.194
-0.08226271 -0.059354108 1.1900001
-0.080045357 -0.059254356 1.1880001
-0.077835001 -0.0591546 1.1860001
-0.075631641 -0.05905484 1.184
-0.073497415 -0.05900497 1.1830001
-0.07136669 -0.058955088 1.182
-0.06923946 -0.058905218 1.1810001
-0.067058854 -0.058805458 1.179
-0.064940378 -0.05875558 1.1780001
-0.062718645 -0.05860595 1.1750001
-0.060662299 -0.05860595 1.1750001
-0.05860595 -0.05860595 1.1750001
-0.056549601 -0.05860595 1.1750001
-0.0544005 -0.058506198 1.1730001
-0.05230302 -0.058456313 1.1720001
-0.05025192 -0.058456313 1.1720001
-0.048118569 -0.058356561 1.1700001
-0.046070967 -0.058356561 1.1700001
-0.043948118 -0.058256809 1.1680001
-0.041904021 -0.058256809 1.1680001
-0.039791662 -0.058157045 1.166
-0.037751067 -0.058157045 1.166
-0.035741094 -0.058206931 1.1670001
-0.033814255 -0.058406439 1.171
-0.031846285 -0.058556069 1.174
-0.029842436 -0.058655821 1.176
-0.027855216 -0.058805458 1.179
-0.025879372 -0.05900497 1.1830001
-0.023869401 -0.0591546 1.1860001
-0.021830551 -0.059254356 1.1880001
-0.01980133 -0.059403993 1.1910001
-0.017746732 -0.059503745 1.1930001
-0.015685132 -0.059603497 1.1950001
-0.013627907 -0.059753127 1.1980001
-0.011589059 -0.060052395 1.2040001
-0.11797319 -0.060640421 1.2600001
-0.11549245 -0.06049604 1.2570001
-0.11320246 -0.060447909 1.256
-0.11082759 -0.060351655 1.2540001
-0.1083731 -0.060207274 1.251
-0.10584422 -0.060014769 1.2470001
-0.10316309 -0.059726004 1.2410001
-0.096589774 -0.058378439 1.2130001
-0.094155416 -0.058185928 1.2090001
-0.091963433 -0.058137801 1.2080001
-0.089626193 -0.057993416 1.205
-0.087081566 -0.057704654 1.199
-0.08455795 -0.057415891 1.1930001
-0.082331844 -0.057319637 1.1910001
-0.080112733 -0.057223383 1.189
-0.077900626 -0.057127129 1.187
-0.075567767 -0.056934617 1.1830001
-0.073435292 -0.05688649 1.182
-0.071306311 -0.056838367 1.1810001
-0.069298089 -0.05688649 1.182
-0.067115732 -0.056790233 1.1800001
-0.064885251 -0.056645852 1.177
-0.062665261 -0.056501471 1.174
-0.060559046 -0.056453347 1.1730001
-0.058456313 -0.056405213 1.1720001
-0.056405213 -0.056405213 1.1720001
-0.054261364 -0.056308966 1.1700001
-0.052258391 -0.056357086 1.171
-0.050209042 -0.056357086 1.171
-0.048118569 -0.056308966 1.1700001
-0.045992218 -0.056212708 1.1680001
-0.043872863 -0.056116447 1.166
-0.041832265 -0.056116447 1.166
-0.039757539 -0.056068327 1.1650001
-0.037751067 -0.056116447 1.166
-0.035710469 -0.056116447 1.166
-0.033756498 -0.056260832 1.169
-0.03179203 -0.056405213 1.1720001
-0.029842436 -0.056597725 1.176
-0.027831592 -0.056693986 1.1780001
-0.025835622 -0.056838367 1.1810001
-0.023849273 -0.057030872 1.1850001
-0.021812174 -0.057127129 1.187
-0.019784702 -0.05727151 1.1900001
-0.017731853 -0.057367764 1.192
-0.015672004 -0.057464015 1.194
-0.013627907 -0.05765653 1.1980001
-0.011579433 -0.057897162 1.2030001
-0.11825407 -0.058574446 1.263
-0.11558431 -0.058342561 1.258
-0.11311233 -0.058203433 1.2550001
-0.11047406 -0.057971541 1.25
-0.10776669 -0.057693284 1.2440001
-0.10525006 -0.057507768 1.24
-0.096669406 -0.056301963 1.2140001
-0.094233289 -0.056116454 1.21
-0.091887303 -0.055977318 1.207
-0.089626193 -0.055884566 1.205
-0.087008946 -0.055559926 1.1980001
-0.08462882 -0.055374417 1.194
-0.082331844 -0.055235289 1.1910001
-0.080112733 -0.055142529 1.189
-0.077900626 -0.055049777 1.187
-0.075631641 -0.054910641 1.184
-0.073497415 -0.054864269 1.1830001
-0.071487442 -0.054910641 1.184
-0.069356717 -0.054864269 1.1830001
-0.067115732 -0.054725137 1.1800001
-0.064940378 -0.054632384 1.1780001
-0.062718645 -0.054493252 1.1750001
-0.060610667 -0.054446869 1.174
-0.058456313 -0.054354116 1.1720001
-0.056357086 -0.054307736 1.171
-0.054214984 -0.054214984 1.169
-0.052213769 -0.054261364 1.1700001
-0.050166167 -0.054261364 1.1700001
-0.048077438 -0.054214984 1.169
-0.045913462 -0.054075852 1.166
-0.043797608 -0.0539831 1.164
-0.041724637 -0.053936727 1.1630001
-0.039723411 -0.0539831 1.164
-0.037718695 -0.054029476 1.1650001
-0.035679843 -0.054029476 1.1650001
-0.033727624 -0.054168612 1.1680001
-0.03179203 -0.054354116 1.1720001
-0.029817061 -0.054493252 1.1750001
-0.027831592 -0.054632384 1.1780001
-0.025813743 -0.054725137 1.1800001
-0.023829147 -0.054910641 1.184
-0.021812174 -0.055049777 1.187
-0.019784702 -0.055188909 1.1900001
-0.017746732 -0.055328041 1.1930001
-0.015685132 -0.055420794 1.1950001
-0.013627907 -0.055559926 1.1980001
-0.011579433 -0.055791814 1.2030001
-0.11576809 -0.05623021 1.2600001
-0.11284194 -0.055873193 1.2520001
-0.10985541 -0.055471547 1.243
-0.096589774 -0.054132733 1.2130001
-0.094155416 -0.053954225 1.2090001
-0.09165892 -0.053731091 1.2040001
-0.089254305 -0.053552579 1.2
-0.086718418 -0.053284816 1.194
-0.084416196 -0.053150937 1.1910001
-0.08226271 -0.053106308 1.1900001
-0.079977974 -0.052972425 1.187
-0.077638119 -0.05279392 1.1830001
-0.075503886 -0.052749291 1.182
-0.073373161 -0.052704666 1.1810001
-0.071306311 -0.052704666 1.1810001
-0.069180831 -0.052660037 1.1800001
-0.067001984 -0.052570783 1.1780001
-0.064830117 -0.052481528 1.176
-0.062611893 -0.052347649 1.1730001
-0.060559046 -0.052347649 1.1730001
-0.058356561 -0.052213769 1.1700001
-0.056308966 -0.052213769 1.1700001
-0.054168612 -0.052124511 1.1680001
-0.052124511 -0.052124511 1.1680001
-0.050037537 -0.052079882 1.1670001
-0.04795406 -0.052035253 1.166
-0.045795336 -0.051901374 1.1630001
-0.043684728 -0.05181212 1.161
-0.041652881 -0.05181212 1.161
-0.039621033 -0.05181212 1.161
-0.037589185 -0.05181212 1.161
-0.035618592 -0.051901374 1.1630001
-0.033640996 -0.051990632 1.1650001
-0.031683527 -0.052124511 1.1680001
-0.029715555 -0.052258391 1.171
-0.027737085 -0.05239227 1.174
-0.025748115 -0.052526154 1.177
-0.023788895 -0.052749291 1.182
-0.021757048 -0.052838545 1.184
-0.019734826 -0.052972425 1.187
-0.017731853 -0.053195558 1.192
-0.015698258 -0.053374074 1.1960001
-0.013639282 -0.05350795 1.199
-0.011569807 -0.053641833 1.202
-0.11275181 -0.053639211 1.251
-0.096828662 -0.052138511 1.2160001
-0.09431117 -0.051924128 1.2110001
-0.091735043 -0.051666863 1.205
-0.089477435 -0.051581111 1.2030001
-0.086863682 -0.051280972 1.1960001
-0.08455795 -0.051152341 1.1930001
-0.082331844 -0.051066589 1.1910001
-0.080045357 -0.050937958 1.1880001
-0.077769376 -0.050809324 1.1850001
-0.075695522 -0.050809324 1.1850001
-0.073621668 -0.050809324 1.1850001
-0.071487442 -0.050766442 1.184
-0.06923946 -0.050637819 1.1810001
-0.067001984 -0.050509185 1.1780001
-0.064830117 -0.050423428 1.176
-0.062718645 -0.050380554 1.1750001
-0.060610667 -0.050337672 1.174
-0.058456313 -0.05025192 1.1720001
-0.056357086 -0.050209042 1.171
-0.054214984 -0.050123289 1.169
-0.052124511 -0.050080415 1.1680001
-0.049994655 -0.049994655 1.166
-0.047912937 -0.049951781 1.1650001
-0.045834705 -0.049908906 1.164
-0.043797608 -0.049908906 1.164
-0.041760512 -0.049908906 1.164
-0.039689288 -0.049866032 1.1630001
-0.037621565 -0.04982315 1.1620001
-0.035618592 -0.049866032 1.1630001
-0.033612121 -0.049908906 1.164
-0.031656399 -0.050037537 1.1670001
-0.029664803 -0.050123289 1.169
-0.027737085 -0.050337672 1.174
-0.025769992 -0.050509185 1.1780001
-0.023809021 -0.050723568 1.1830001
-0.021775424 -0.050809324 1.1850001
-0.019751452 -0.050937958 1.1880001
-0.017746732 -0.051152341 1.1930001
-0.01571138 -0.051323846 1.197
-0.013662033 -0.051495355 1.2010001
-0.011608309 -0.051709745 1.2060001
-0.11275181 -0.05144985 1.251
-0.096510142 -0.0498459 1.212
-0.093921773 -0.049599141 1.2060001
-0.0913544 -0.049352378 1.2
-0.089254305 -0.049352378 1.2
-0.086863682 -0.049187873 1.1960001
-0.08455795 -0.049064487 1.1930001
-0.08226271 -0.048941109 1.1900001
-0.080045357 -0.048858855 1.1880001
-0.077769376 -0.048735473 1.1850001
-0.075567767 -0.048653223 1.1830001
-0.073435292 -0.048612092 1.182
-0.07136669 -0.048612092 1.182
-0.06923946 -0.048570964 1.1810001
-0.066888221 -0.048365328 1.176
-0.064664744 -0.048241951 1.1730001
-0.062505133 -0.048159692 1.171
-0.06035253 -0.048077438 1.169
-0.058256809 -0.048036315 1.1680001
-0.056212708 -0.048036315 1.1680001
-0.054122232 -0.047995187 1.1670001
-0.052035253 -0.04795406 1.166
-0.049951781 -0.047912937 1.1650001
-0.047912937 -0.047912937 1.1650001
-0.045913462 -0.04795406 1.166
-0.043872863 -0.04795406 1.166
-0.04179639 -0.047912937 1.1650001
-0.039689288 -0.047830679 1.1630001
-0.037621565 -0.047789551 1.1620001
-0.035618592 -0.047830679 1.1630001
-0.033612121 -0.047871806 1.164
-0.031602148 -0.047912937 1.1650001
-0.029614052 -0.047995187 1.1670001
-0.027666207 -0.048159692 1.171
-0.025704363 -0.048324201 1.1750001
-0.023728518 -0.04848871 1.179
-0.021701921 -0.048570964 1.1810001
-0.019684948 -0.048694346 1.184
-0.017702103 -0.048941109 1.1900001
-0.015698258 -0.049187873 1.1960001
-0.013684784 -0.049475759 1.2030001
-0.096589774 -0.047764175 1.2130001
-0.093999654 -0.047527913 1.207
-0.09150666 -0.047331028 1.202
-0.089477435 -0.047370408 1.2030001
-0.087154202 -0.047252279 1.2
-0.084770583 -0.04709477 1.1960001
-0.082400963 -0.046937261 1.192
-0.080180116 -0.046858508 1.1900001
-0.078031883 -0.046819128 1.189
-0.075823277 -0.046740375 1.187
-0.073683806 -0.046701003 1.1860001
-0.071487442 -0.046622243 1.184
-0.069473974 -0.046661623 1.1850001
-0.067115732 -0.046464738 1.1800001
-0.064830117 -0.046307229 1.176
-0.062505133 -0.046110343 1.171
-0.060404163 -0.046070967 1.1700001
-0.058306683 -0.046031591 1.169
-0.056212708 -0.045992218 1.1680001
-0.054122232 -0.045952838 1.1670001
-0.052079882 -0.045952838 1.1670001
-0.050037537 -0.045952838 1.1670001
-0.048036315 -0.045992218 1.1680001
-0.046070967 -0.046070967 1.1700001
-0.044060998 -0.046110343 1.171
-0.042011648 -0.046110343 1.171
-0.039859924 -0.045992218 1.1680001
-0.037751067 -0.045913462 1.166
-0.035741094 -0.045952838 1.1670001
-0.033785377 -0.046070967 1.1700001
-0.031764902 -0.046110343 1.171
-0.029740933 -0.046149723 1.1720001
-0.027760712 -0.046267856 1.1750001
-0.025769992 -0.046385989 1.1780001
-0.023768771 -0.046504118 1.1810001
-0.021738673 -0.04658287 1.1830001
-0.019718202 -0.046701003 1.1860001
-0.01771698 -0.046897888 1.1910001
-0.01571138 -0.047134146 1.197
-0.013707535 -0.04744916 1.205
-0.096589774 -0.045641325 1.2130001
-0.094155416 -0.045490816 1.2090001
-0.091582783 -0.045265056 1.2030001
-0.089403048 -0.045227427 1.202
-0.087008946 -0.045076922 1.1980001
-0.08462882 -0.044926412 1.194
-0.08226271 -0.044775907 1.1900001
-0.080112733 -0.044738278 1.189
-0.077900626 -0.044663023 1.187
-0.075759403 -0.044625401 1.1860001
-0.073621668 -0.044587772 1.1850001
-0.07142707 -0.044512521 1.1830001
-0.069356717 -0.044512521 1.1830001
-0.067115732 -0.044399638 1.1800001
-0.064830117 -0.044249129 1.176
-0.062505133 -0.044060998 1.171
-0.060404163 -0.044023372 1.1700001
-0.058356561 -0.044023372 1.1700001
